 -0.108931136539  -0.235183791683 -0.0760593170699 1713168294.6
 -0.102793737707  -0.210883843289 -0.0458653601915 1713168294.62
-0.0837317183051  -0.198731112582 -0.0169763924228 1713168294.64
-0.0571700183677  -0.194192513352 0.00539381991413 1713168294.66
-0.0292993140707  -0.191225271713  0.0177940985861 1713168294.68
-0.0058634766435   -0.18353236794  0.0192216930067 1713168294.7
0.00891862808463   -0.16569335173  0.0111887262849 1713168294.72
  0.0130914518158   -0.133978866492 -0.00279326959748 1713168294.74
0.00722879888395 -0.0867626931046 -0.0181339500485 1713168294.76
-0.00580509266509   -0.024547014939  -0.0302324926646 1713168294.78
-0.0215290440147  0.0503114381235 -0.0354316322211 1713168294.8
-0.0347993921747    0.13405705976 -0.0316591130194 1713168294.82
-0.0408457079582    0.22206485891 -0.0186629507519 1713168294.84
-0.0361864174682   0.309368799425 0.00214306435297 1713168294.86
-0.0192619205742    0.39115098225  0.0281229388212 1713168294.88
0.0093102225953  0.463178304888 0.0560100253849 1713168294.9
0.0468753884359  0.522178390652 0.0825101831589 1713168294.92
0.0892223701377  0.566135809613  0.104816250795 1713168294.94
0.131296339616 0.594474442466 0.120979204701 1713168294.96
0.168009735073 0.608085940943 0.130117612478 1713168294.98
 0.19501572093 0.609176900893 0.132466173083 1713168295
0.209327848716  0.60093901582 0.129271293572 1713168295.02
 0.20970140511 0.587088181439 0.122547889048 1713168295.04
0.196732475322 0.571355522173  0.11472502983 1713168295.06
0.172677258067 0.557030966886 0.108228512948 1713168295.08
0.141041015446 0.546649587125 0.105067899112 1713168295.1
0.106022916941  0.54187315365 0.106502871953 1713168295.12
0.071919218445 0.543564618527 0.112851129313 1713168295.14
0.0425787289536  0.551998305168  0.123468659863 1713168295.16
0.020977544777 0.567111273772 0.136894506616 1713168295.18
0.00894732165683   0.588694325647   0.151120991671 1713168295.2
0.00706453376342   0.616447470767   0.163935551647 1713168295.22
0.014691768041 0.649876449006 0.173279195863 1713168295.24
0.0301530475345  0.688067599258  0.177570253132 1713168295.26
0.0510171214597  0.729428579987  0.175945107441 1713168295.28
0.0744514949269  0.771506086043  0.168372867218 1713168295.3
0.0975969376578  0.810980679867  0.155615420057 1713168295.32
0.117903393158 0.843894861177 0.139031603078 1713168295.34
0.133371249825 0.866104664353 0.120259881919 1713168295.36
0.142661469103  0.87387600469 0.100847270572 1713168295.38
  0.14507178731  0.864496658622 0.0819112946463 1713168295.4
0.140414003412 0.836761552037 0.063918606418 1713168295.42
 0.128855051287  0.791219844391 0.0466377151883 1713168295.44
 0.110790764651  0.730137991119 0.0292813718377 1713168295.46
0.0868032837774   0.65721078061 0.0108086131081 1713168295.48
  0.0577179564572    0.577114738764 -0.00968077535838 1713168295.5
 0.0247359307554   0.495023828128 -0.0325484199429 1713168295.52
-0.0104136416439   0.416188721905 -0.0573096863491 1713168295.54
-0.0453753900015   0.345627477136  -0.082497474997 1713168295.56
-0.0771966640205    0.28790993457  -0.105750313539 1713168295.58
-0.102536918069  0.246968622182 -0.124134265304 1713168295.6
-0.118071200873   0.22585768644 -0.134655449773 1713168295.62
-0.121046203311  0.226415404061  -0.13486883201 1713168295.64
-0.109889052998  0.248852610244 -0.123453724519 1713168295.66
-0.0847274858145   0.291361024871   -0.10062001864 1713168295.68
-0.0476741764417   0.349879962586 -0.0682379205854 1713168295.7
-0.00276601347974    0.418154683232  -0.0296442995372 1713168295.72
0.0444767205221  0.488161299851 0.0108439615443 1713168295.74
0.0878165013359   0.55087950357 0.0486075364047 1713168295.76
 0.121255514688  0.597297737599 0.0794476272259 1713168295.78
0.140001699339 0.619470188268 0.100206675483 1713168295.8
0.141260330348 0.611433703894 0.109176098284 1713168295.82
0.124709676346 0.569837379662 0.106240986125 1713168295.84
0.0925898074098  0.494218928547 0.0927752509288 1713168295.86
0.0494091855747  0.386948848314 0.0713488899412 1713168295.88
0.00133312266299   0.252925974519  0.0453308879184 1713168295.9
-0.044648311547 0.0991292815217 0.0184653503234 1713168295.92
 -0.0816643016346  -0.0658889371876 -0.00552711290142 1713168295.94
 -0.103910739929  -0.232529129043 -0.0233011919428 1713168295.96
 -0.107493972204  -0.390699352722 -0.0321908176973 1713168295.98
-0.0910640919978  -0.530438187183 -0.0304669903176 1713168296
-0.0561373043551  -0.642640763599 -0.0175389851029 1713168296.02
-0.00703005423547    -0.71988379375   0.0059282732639 1713168296.04
0.0496246874969 -0.757284025194 0.0380164608795 1713168296.06
 0.105739212583 -0.753263499638 0.0757037571632 1713168296.08
 0.152895715097 -0.710058784443   0.11516618348 1713168296.1
 0.183560292526 -0.633817649816  0.152201428661 1713168296.12
0.192191625086 -0.53418003943 0.182717249938 1713168296.14
 0.176071393026 -0.423330277962   0.20321184919 1713168296.16
 0.135737453854 -0.314612342203  0.211177049551 1713168296.18
0.0749674418367 -0.220893407744  0.205372819054 1713168296.2
0.00032332968673  -0.152920383542   0.185945373374 1713168296.22
-0.079679985252 -0.117927279432  0.154382923113 1713168296.24
-0.155675973591 -0.118717141537  0.113319710345 1713168296.26
-0.218676950733 -0.153369308578 0.0662118167047 1713168296.28
-0.261270504106 -0.215624386315  0.016920620751 1713168296.3
 -0.278615302887  -0.295891066207 -0.0307473667746 1713168296.32
 -0.269091256943  -0.382716998158 -0.0734852897524 1713168296.34
-0.234505359916 -0.464487042967 -0.108853315689 1713168296.36
-0.179819323284 -0.531071740153 -0.135513636053 1713168296.38
-0.112437573815 -0.575157190309 -0.153295450917 1713168296.4
-0.0411620771203  -0.593046430941   -0.16307819314 1713168296.42
 0.025027963462 -0.584822645892 -0.166512811284 1713168296.44
0.0781876660734 -0.553887224378 -0.165632563398 1713168296.46
 0.112430682162 -0.506005532985 -0.162427948978 1713168296.48
  0.12462309858 -0.448083927709 -0.158467144812 1713168296.5
 0.114662653534 -0.386941516802 -0.154631494253 1713168296.52
0.0853277443332 -0.328318831845 -0.151010824043 1713168296.54
0.0417456924051 -0.276287602717 -0.146974778252 1713168296.56
-0.00942034878543   -0.233112250828   -0.141410045801 1713168296.58
-0.0609372063516  -0.199496995083  -0.133089241505 1713168296.6
-0.105983247742 -0.175066402307 -0.121112046154 1713168296.62
-0.139018350611 -0.158894931449 -0.105333016164 1713168296.64
 -0.156438481607  -0.149926753123 -0.0866710420812 1713168296.66
 -0.156944182945  -0.147195816953 -0.0671969085877 1713168296.68
 -0.141590634287  -0.149840645195 -0.0499301485718 1713168296.7
 -0.113526838812  -0.156980189074 -0.0383446074671 1713168296.72
-0.0774698471966  -0.167555876082 -0.0356668173555 1713168296.74
-0.0389935343621  -0.180243172967 -0.0441233315917 1713168296.76
-0.00373559373852    -0.19349891965  -0.0643246186007 1713168296.78
 0.0233644136593  -0.205753161756 -0.0949501632888 1713168296.8
0.0386923459943 -0.215695623394 -0.132827902081 1713168296.83
0.0403745326524 -0.222566067437 -0.173402847742 1713168296.84
0.0284392619708 -0.226347697955 -0.211493861382 1713168296.87
0.00472131115505  -0.227787034608  -0.242171153021 1713168296.88
-0.0274609409351  -0.228214869815  -0.261567500422 1713168296.9
-0.0638015290959  -0.229204545106  -0.267465085996 1713168296.92
-0.0996055566477  -0.232155749303  -0.259562741602 1713168296.94
-0.130411517582 -0.237917449628 -0.239401433995 1713168296.96
-0.152556790811 -0.246554339083  -0.20998812969 1713168296.98
-0.163611421669 -0.257320361688 -0.175201197778 1713168297
-0.162619635585 -0.268843250746 -0.139087304164 1713168297.02
-0.150113859092 -0.279464064376 -0.105175349709 1713168297.04
 -0.127902716495  -0.287634070858 -0.0759352459378 1713168297.06
-0.0986777278305  -0.292260928847 -0.0524889938595 1713168297.08
-0.0655223829076  -0.292919358556 -0.0346318461608 1713168297.1
  -0.03142844465  -0.289888948212 -0.0211482122752 1713168297.12
0.00108169297367  -0.284035382104 -0.0103308985627 1713168297.14
   0.0301608621007    -0.276591942898 -0.000559644172141 1713168297.16
 0.0546552888144  -0.268912939241 0.00921506689664 1713168297.18
0.0739697781997 -0.262258219487 0.0192011495237 1713168297.2
 0.087851039164 -0.257637362948 0.0287572498629 1713168297.22
0.0961734037467 -0.255708878858 0.0366221357108 1713168297.24
0.0987996580745 -0.256708966944 0.0412949682411 1713168297.26
0.0955590272505 -0.260384964829 0.0414531348773 1713168297.28
0.0863445801238 -0.265929138007 0.0363031958264 1713168297.3
0.0712947761344 -0.271937504999  0.025795542724 1713168297.32
0.0509981583695 -0.276439597007 0.0106780769733 1713168297.34
  0.0266521206407   -0.277045262156 -0.00759629877934 1713168297.36
0.000117378833123   -0.271230178459  -0.0270675079272 1713168297.38
-0.0261644188824  -0.256739569576 -0.0455197032785 1713168297.4
-0.049389391011 -0.232043534422 -0.060737263269 1713168297.42
-0.0667151220392  -0.196742875464 -0.0707296464671 1713168297.44
-0.0756374747808  -0.151814269196 -0.0739080044907 1713168297.46
-0.0743609042489 -0.0996052859738 -0.0692133735887 1713168297.48
-0.0621052231806  -0.043541820164 -0.0562047710297 1713168297.51
-0.0393002374592  0.0124184429775 -0.0351129789803 1713168297.52
-0.00763169785358   0.0644823420843 -0.00685542500312 1713168297.54
 0.030081923211  0.109714758183 0.0270032790089 1713168297.56
0.0701812622748  0.146566538431 0.0643642705496 1713168297.58
0.108600915206  0.17510667643  0.10279205026 1713168297.6
0.141396142294 0.196896253244 0.139788804747 1713168297.62
0.165288721772 0.214526801721 0.173112263438 1713168297.64
0.178146539204 0.230926602935 0.201081490684 1713168297.66
 0.17931220573 0.248594772022 0.222804942393 1713168297.69
0.169713444179 0.268941482835   0.2382737655 1713168297.7
0.151722074434 0.291889827557 0.248290479834 1713168297.72
0.128773809791 0.315836971668 0.254241499489 1713168297.74
0.104807796941 0.337993032327 0.257759900765 1713168297.76
 0.08362176941 0.355032545385 0.260351576562 1713168297.79
0.0682573650178   0.36392247632  0.263066973634 1713168297.81
0.0605266547581  0.362746484131  0.266290744945 1713168297.82
0.0607657781979  0.351336557312  0.269695616809 1713168297.84
0.0678592148565  0.331553101989  0.272370070969 1713168297.86
0.0795266040844  0.307119563619  0.273089662683 1713168297.88
0.0928136079465  0.283007886211  0.270667511857 1713168297.9
0.104689575894 0.264471019883 0.264298304164 1713168297.92
0.112635227364 0.255908616305  0.25380703068 1713168297.94
0.115106122225 0.259810984576 0.239730956559 1713168297.96
 0.11178131351  0.27603576262 0.223200691262 1713168297.98
0.103548037409 0.301620553924 0.205639469976 1713168298
0.0922275473937  0.331225481986  0.188357807425 1713168298.02
0.0801057971623  0.358152621212  0.172165382993 1713168298.04
0.0693824892285  0.375741165291  0.157133445849 1713168298.06
0.0616773025729  0.378830750766  0.142607299443 1713168298.08
0.0577205811924  0.364954446652  0.127493989184 1713168298.1
0.0573055555029  0.334979750313  0.110757127803 1713168298.12
0.0595025836836  0.293046404796 0.0919709746578 1713168298.14
0.0630567430935  0.245818341731 0.0717494190199 1713168298.16
0.0668351079093   0.20122769563 0.0518885093372 1713168298.18
  0.07017822319  0.166999306816 0.0351393280062 1713168298.2
0.0730452887132  0.149277833041 0.0246375669582 1713168298.22
 0.075911722802  0.151632610325 0.0231220108802 1713168298.24
0.0794577514177  0.174606088146 0.0321425478937 1713168298.26
0.0841525234154    0.2158335656 0.0514692171666 1713168298.28
0.0898715181666  0.270633363117 0.0788668693575 1713168298.3
0.0956779443421  0.332880000485  0.110311922054 1713168298.32
0.0998547259658  0.395946756462  0.140623159009 1713168298.34
0.100204740989  0.45353758341  0.16438182385 1713168298.36
0.0945610675973  0.500302979324  0.176947279731 1713168298.38
0.081385623693 0.532220101181 0.175347882397 1713168298.4
0.0603006531126  0.546784121162  0.158850122913 1713168298.42
0.0324034343001  0.543086252052   0.12907970977 1713168298.44
0.000261396237133    0.521841035914   0.0896705470702 1713168298.46
-0.0324374325296   0.485383697387  0.0455259860438 1713168298.48
-0.0615151614866   0.437608949547  0.0018632637473 1713168298.5
-0.0830785444574   0.383787921524 -0.0367450040954 1713168298.52
-0.0942626903636   0.330195929667 -0.0671282575566 1713168298.54
-0.0937793930309   0.283515649189 -0.0879279163557 1713168298.56
 -0.082157366465   0.250040307523 -0.0996015585876 1713168298.58
-0.0616377414134   0.234772028568  -0.104058078643 1713168298.6
-0.0357658234354    0.24056897968     -0.104038617 1713168298.62
-0.00877951650978    0.267521360615   -0.102402358985 1713168298.64
0.0150759327903  0.312718538786 -0.101480409551 1713168298.66
 0.032180297166  0.370507248079 -0.102628676025 1713168298.68
0.0400201620253  0.433245069499 -0.106053288674 1713168298.7
0.0374652756687  0.492445472968 -0.110914806319 1713168298.72
0.0248284269205  0.540116862646 -0.115656096337 1713168298.74
0.00373286481373   0.570043444286  -0.118456266851 1713168298.76
-0.0231672867683   0.578756862442  -0.117696651404 1713168298.78
-0.0525601855789   0.566006698837  -0.112335321837 1713168298.8
-0.0808914424432   0.534641689315  -0.102118944605 1713168298.82
 -0.104776573223   0.489936836576 -0.0876058343013 1713168298.84
 -0.121373725829   0.438515308863 -0.0700201368788 1713168298.86
 -0.128686641709   0.387092680269 -0.0509925344047 1713168298.88
 -0.125774583925   0.341298415911 -0.0322595301576 1713168298.9
 -0.112853637242   0.304801059062 -0.0153894428994 1713168298.92
 -0.0912822441405    0.278887135734 -0.00158346382333 1713168298.94
-0.0634318492191   0.262537937496 0.00842691938726 1713168298.96
-0.0324504539875   0.252938542921  0.0143905046514 1713168298.98
-0.00193388343606    0.246265917816   0.0164775950124 1713168299
0.0244714117368  0.238557803288 0.0151827601931 1713168299.02
0.0434986273673   0.22646984181  0.011218762487 1713168299.04
0.0526766503383   0.20777950467 0.0054227203984 1713168299.06
  0.0506764393777    0.181574172675 -0.00131705379447 1713168299.08
  0.0375319990239    0.148143096148 -0.00811800466565 1713168299.1
 0.0146901247212   0.108656535174 -0.0141571607599 1713168299.12
-0.0151364737509  0.0647466731211 -0.0187350926545 1713168299.14
-0.0483090415052  0.0181024512777 -0.0213538580174 1713168299.16
-0.0807588044584 -0.0298371266595 -0.0217982226764 1713168299.18
 -0.108571660438 -0.0780461718499 -0.0201984135199 1713168299.2
 -0.128573271828  -0.125925625113 -0.0170527383616 1713168299.22
 -0.138820459369  -0.173192407298 -0.0132002929393 1713168299.24
  -0.138914873276   -0.219688661418 -0.00975049467411 1713168299.26
  -0.130078716675   -0.265165069677 -0.00798724583331 1713168299.28
  -0.114966808952   -0.309092898212 -0.00926503772784 1713168299.3
-0.0972315245131  -0.350552625475 -0.0149038899585 1713168299.32
-0.0809025176542  -0.388233075179 -0.0260775713231 1713168299.34
-0.0696836223912  -0.420554264266 -0.0436843842552 1713168299.36
-0.0662944687784  -0.445901288182 -0.0681974850288 1713168299.38
-0.0719851567912  -0.462929107543 -0.0995107916204 1713168299.4
-0.0863250431131  -0.470874708911  -0.136818178765 1713168299.42
-0.107314675075  -0.46980053974 -0.178575067771 1713168299.44
-0.131803277801 -0.460697335423 -0.222582424965 1713168299.46
-0.156128131971 -0.445398224524 -0.266202466776 1713168299.48
-0.176843449732 -0.426296898011 -0.306673244403 1713168299.5
  -0.1913882578 -0.405912531819 -0.341452991713 1713168299.52
-0.198560279651 -0.386390518717 -0.368510635819 1713168299.54
-0.198710648823 -0.369056891005 -0.386493510612 1713168299.56
-0.193639223183 -0.354144208909  -0.39474273305 1713168299.58
-0.186235387039 -0.340773128436 -0.393176559882 1713168299.6
 -0.17995830647 -0.327212185422 -0.382103173567 1713168299.62
 -0.17827189698 -0.311363837199 -0.362040231123 1713168299.64
-0.184139501167  -0.29135899535 -0.333602963277 1713168299.66
-0.199647797472 -0.266106010298 -0.297483643037 1713168299.68
-0.225783722068 -0.235646138528  -0.25450146622 1713168299.7
-0.262349962875 -0.201215960888 -0.205672658351 1713168299.72
 -0.30798679904 -0.164995046743 -0.152246345545 1713168299.74
 -0.360273114753  -0.129602469809 -0.0956705072427 1713168299.76
 -0.415898518039 -0.0974744190894 -0.0374835121713 1713168299.78
  -0.47091634718 -0.0702878294957  0.0208428986425 1713168299.8
 -0.521090001156 -0.0485828267414   0.078064537842 1713168299.82
 -0.562327134514 -0.0316836882205   0.133283068622 1713168299.84
 -0.591164081576 -0.0179388234648   0.185988830173 1713168299.86
  -0.605231302315 -0.00521612040212    0.236017930957 1713168299.88
 -0.603615418212 0.00847740232893    0.28343623372 1713168299.9
-0.587042912524 0.0244161419849  0.328379568704 1713168299.92
-0.557841969025  0.042771722309  0.370887628685 1713168299.94
-0.519680684538 0.0625284215747  0.410769334352 1713168299.96
-0.477118392275 0.0817228961126  0.447531890552 1713168299.98
-0.435032652628 0.0979447717405  0.480395504074 1713168300
-0.397995302356  0.108962031421  0.508400998383 1713168300.02
-0.369670717008  0.113298928377  0.530598505715 1713168300.04
-0.35230468157 0.110606196262 0.546283823324 1713168300.06
-0.346367666008  0.101721690245  0.555229352434 1713168300.08
-0.350411453485 0.0884079448696  0.557845382922 1713168300.1
 -0.36118730514 0.0728452349433  0.555211367028 1713168300.12
-0.374049502497 0.0570271110426  0.548939368541 1713168300.14
-0.383625706403 0.0422306745398  0.540871460354 1713168300.16
-0.384678493454 0.0287105344674   0.53266155362 1713168300.18
-0.373023712802 0.0157019415947    0.5253366867 1713168300.2
 -0.346330864093 0.00173322703274   0.518957904475 1713168300.22
 -0.304628010708 -0.0148374805016   0.512494585819 1713168300.24
 -0.250378705156 -0.0352100883153   0.503985183843 1713168300.26
 -0.188085049332 -0.0596299068821   0.490989908906 1713168300.28
-0.123477915858 -0.087130076969   0.47126432271 1713168300.3
-0.0624528973871  -0.115622741675   0.443517714555 1713168300.32
-0.00997156399712    -0.14234307617    0.408083118937 1713168300.34
0.0308434920979  -0.16455536807   0.36732542236 1713168300.36
0.0592346359447 -0.180353793928  0.325651011271 1713168300.38
0.0768530893633 -0.189351399128  0.289052432039 1713168300.4
 0.087317690231 -0.193059810525  0.264215717504 1713168300.42
0.0953819510903 -0.194820351441  0.257321411953 1713168300.44
 0.105878371196 -0.199245038664  0.272761083669 1713168300.46
 0.122651720303 -0.211243901793   0.31204433662 1713168300.48
 0.147696485061 -0.234826255789  0.373166618292 1713168300.5
  0.18067631623 -0.271939478441  0.450637011995 1713168300.52
0.218929978065  -0.3216271528 0.536235215422 1713168300.54
0.257971737731 -0.37973977821 0.620401888035 1713168300.56
 0.292393739254 -0.439322621671  0.694003852113 1713168300.58
 0.316994680082 -0.491658892232  0.750099100776 1713168300.6
 0.327909684197 -0.527794776739  0.785294509353 1713168300.62
  0.32350974311 -0.540251436246  0.800360286422 1713168300.64
 0.304877190156 -0.524568186779  0.799929265852 1713168300.66
 0.275741582282 -0.480338814236  0.791327519196 1713168300.68
 0.241866395576 -0.411500002569  0.782799104858 1713168300.7
 0.209992042785 -0.325788839242  0.781543937528 1713168300.72
 0.186540517308 -0.233470404628  0.792040174194 1713168300.74
 0.176347223551 -0.145602213912   0.81505485773 1713168300.76
  0.181689232555 -0.0722068714257   0.847575204148 1713168300.78
  0.201822156496 -0.0207384681425   0.883662454859 1713168300.8
   0.23313095034 0.00485379573853   0.916000403994 1713168300.82
  0.269866991309 0.00431820569803   0.937740038068 1713168300.84
  0.305315509705 -0.0194091489192   0.944172919221 1713168300.86
  0.333143681218 -0.0612090360436   0.933816054214 1713168300.88
 0.348641908886 -0.114974082663  0.908646935577 1713168300.9
 0.349597305422 -0.174684453231  0.873448484317 1713168300.92
 0.336622914692 -0.235135918658  0.834451818381 1713168300.94
 0.312889729485 -0.292227301408  0.797640944523 1713168300.96
 0.283342877368 -0.342856971139  0.767163110265 1713168300.98
 0.253596541167 -0.384584598652  0.744252616005 1713168301
 0.228765947256 -0.415258167564    0.7269348965 1713168301.02
 0.212492814953 -0.432783699647  0.710569325814 1713168301.04
  0.20635526052 -0.435142751177  0.689069395945 1713168301.06
 0.209745611518 -0.420668389656  0.656466921536 1713168301.08
 0.22018322748  -0.3885033816 0.608408247742 1713168301.1
 0.233937546658 -0.339107179647  0.543203852206 1713168301.12
  0.24679106958 -0.274661690164   0.46218589422 1713168301.14
  0.25477723987 -0.199247843859  0.369322158014 1713168301.16
 0.25477200392 -0.11871430191 0.270234400215 1713168301.18
  0.244878017473 -0.0402208394591   0.170917844512 1713168301.2
  0.22459415559  0.028501727564 0.0765151865393 1713168301.22
   0.194795482508    0.080084376746 -0.00954876545086 1713168301.24
  0.157558436682   0.108519401567 -0.0858941491701 1713168301.26
 0.115862248254  0.110078584599 -0.152959408367 1713168301.28
0.0731939202799 0.0839947034008 -0.212349979994 1713168301.3
 0.033089076079 0.0327639275102 -0.265981893948 1713168301.32
-0.00134584098505  -0.0380322631857   -0.315264408093 1713168301.34
-0.0278705083991  -0.120413646146  -0.360531359721 1713168301.36
-0.0454410835009  -0.205125925491   -0.40085410375 1713168301.38
-0.0543751542155   -0.28303074947  -0.434269374219 1713168301.4
-0.0563130672309  -0.346511324913   -0.45835373983 1713168301.42
-0.0539684407759  -0.390619012493  -0.470992792618 1713168301.44
-0.0506961537156  -0.413727177491  -0.471144883425 1713168301.46
-0.0499388405101   -0.41755999203  -0.459396531093 1713168301.48
-0.0546361808552  -0.406602245046  -0.438151100867 1713168301.5
 -0.06669052532 -0.387035598312 -0.411375760478 1713168301.52
-0.0865761830098  -0.365449188901  -0.383936707217 1713168301.54
-0.113159380815 -0.347610163642  -0.36065534448 1713168301.56
-0.143764931979 -0.337544481673 -0.345293328008 1713168301.58
-0.174488857188  -0.33708423507 -0.339702402365 1713168301.6
-0.200719154526 -0.345915136873 -0.343346942232 1713168301.62
-0.217795109948 -0.362041744809 -0.353328100374 1713168301.64
-0.221713457219  -0.38250683018 -0.364926112469 1713168301.66
-0.209780059348 -0.404169968627 -0.372557499572 1713168301.68
-0.181109459572 -0.424368894476  -0.37094451546 1713168301.7
-0.136891271973 -0.441343108241 -0.356238954344 1713168301.72
-0.080370938823  -0.45437305132 -0.326846040742 1713168301.74
-0.0165308287349  -0.463658941706  -0.283758595503 1713168301.76
0.0484981994319 -0.470014499115 -0.230324495411 1713168301.78
 0.108221440201 -0.474473886377 -0.171505575558 1713168301.8
 0.156653269698  -0.47790614181 -0.112809279224 1713168301.82
 0.189150691855 -0.480708396166 -0.059152273419 1713168301.84
  0.203078345034  -0.482618817783 -0.0139260385352 1713168301.86
 0.198193583979 -0.482663008903   0.02152506445 1713168301.88
 0.176677022953 -0.479229557008 0.0479156082178 1713168301.9
 0.142787800801 -0.470261705953 0.0675571361172 1713168301.92
 0.102187999175 -0.453547433026 0.0835758152545 1713168301.94
0.0610454354106 -0.427082332001 0.0990310719712 1713168301.96
0.0250723600324 -0.389464230664  0.116159555767 1713168301.98
-0.00132558941004   -0.340257884823    0.135911717675 1713168302
-0.0156376212711   -0.28025176162   0.157853616031 1713168302.02
-0.0174765190008  -0.211528726151    0.18040481713 1713168302.04
-0.00842638489222   -0.137296475982    0.201302863264 1713168302.06
0.00843676305342 -0.0614715908558   0.218144950235 1713168302.08
0.0292393999965 0.0119265028029  0.228864828025 1713168302.1
0.0500770636648 0.0794553247439  0.232050637898 1713168302.12
0.0677100200688  0.138848754407  0.227078375309 1713168302.14
0.0800716083917  0.189383187262  0.214099793276 1713168302.16
0.0865181069887    0.2319048003  0.193958946605 1713168302.18
0.0878018480385  0.268497158024  0.168106823183 1713168302.2
0.0857985118953   0.30186723153  0.138545125914 1713168302.22
0.083056380283 0.334608981075 0.107779550256 1713168302.24
0.0822559104534  0.368539098646 0.0787257198314 1713168302.26
0.0856729074592  0.404276513087 0.0545059409757 1713168302.28
0.0947306258055  0.441163296932  0.038105812443 1713168302.3
 0.109708175934  0.477524581899 0.0319145956308 1713168302.32
  0.12964707807  0.511171813637 0.0372305986338 1713168302.34
  0.15246744355   0.53999567967 0.0538507205272 1713168302.36
 0.175273710201  0.562486596769 0.0798675353055 1713168302.38
0.194801520017 0.578058099444 0.111765256881 1713168302.4
0.207936705411 0.587113959004 0.144845549531 1713168302.42
0.212227911205 0.590869895936 0.173939896174 1713168302.44
0.206317221719 0.590995428811 0.194294049075 1713168302.46
0.190226298154 0.589170411442    0.202458672 1713168302.48
0.165454676484 0.586654418211 0.197002627762 1713168302.5
0.134867766251 0.583952810132 0.178888934404 1713168302.52
  0.1023730764 0.580640284783 0.151415210144 1713168302.54
0.0724061070731  0.575377499282  0.119706500813 1713168302.56
0.0492752415536  0.566131095841 0.0898384782858 1713168302.58
0.0364476461358  0.550581016702 0.0677434957986 1713168302.6
0.0358888490116  0.526669537872  0.058096879197 1713168302.62
 0.047585115214  0.493214262471 0.0633895772166 1713168302.64
0.0693680232445   0.45047691861 0.0833667020423 1713168302.66
0.0971196683577  0.400560397971  0.114955593154 1713168302.68
0.125369504663 0.347509696182 0.152728831005 1713168302.7
0.148213027349 0.297027583873 0.189852672858 1713168302.72
0.160405198634 0.255784278217   0.2193681667 1713168302.74
 0.15842502056 0.230391673872 0.235560237108 1713168302.76
  0.1412877691  0.22620510687 0.235120301399 1713168302.78
0.110909879889 0.246181771524 0.217828942765 1713168302.8
0.0719105951935  0.290041271926  0.186583356867 1713168302.82
0.0308513949251  0.353930402906   0.14674622009 1713168302.84
-0.00495884004996    0.430699493282    0.104955051969 1713168302.86
-0.0288618890231   0.510775175291  0.0676598849127 1713168302.88
-0.0361683113691    0.58349414734  0.0397207553918 1713168302.9
-0.025123297891  0.638670623828 0.0233814634305 1713168302.92
0.00268205372392   0.668123455706  0.0178467451164 1713168302.94
0.0425428726802  0.666893683512 0.0195485206534 1713168302.96
0.0874719961266  0.633937289062 0.0230281472792 1713168302.98
 0.129463319615    0.5721720677 0.0222236302387 1713168303
 0.160933453771  0.487876572805 0.0118641251965 1713168303.02
  0.176058199262   0.389561849189 -0.0113438563385 1713168303.04
   0.17175081886    0.28653817286 -0.0480005408973 1713168303.06
  0.148109767989   0.187455463119 -0.0959161916644 1713168303.08
 0.108274499834 0.0990921557864  -0.15063630148 1713168303.1
 0.057744935836 0.0256025406913 -0.206447970116 1713168303.12
0.00331934160741 -0.0316775524298  -0.257621198672 1713168303.14
-0.0481321429768 -0.0738946258278  -0.299594426442 1713168303.16
-0.0908248073168  -0.103952086301  -0.329837178832 1713168303.18
-0.120942805895 -0.125607017937 -0.348206198169 1713168303.2
-0.137108065109  -0.14261158232 -0.356735696785 1713168303.22
-0.140378716489 -0.158073755761 -0.358939595022 1713168303.24
-0.133810471784 -0.174124342804 -0.358820983736 1713168303.26
-0.121692671785 -0.191879527682 -0.359851149774 1713168303.28
-0.108624326406 -0.211611326382 -0.364178914985 1713168303.3
-0.0986150101521  -0.233002673219  -0.372261407891 1713168303.32
-0.0943784126542  -0.255374104939   -0.38298985421 1713168303.34
-0.0969377604571  -0.277814708763  -0.394251769565 1713168303.36
-0.105593856069  -0.29921156213 -0.403759877595 1713168303.38
-0.118233462662  -0.31822756028 -0.409915803278 1713168303.4
-0.131893395439 -0.333309254761 -0.412475245688 1713168303.42
-0.143455137091 -0.342803723506 -0.412836159115 1713168303.44
-0.150330768553 -0.345226357218 -0.413865332199 1713168303.46
-0.151011936034 -0.339660577979 -0.419289213594 1713168303.48
 -0.14538420299 -0.326205559343 -0.432779303223 1713168303.5
-0.134753237442 -0.306341740799 -0.456940097484 1713168303.52
-0.121580588875 -0.283074377302 -0.492441066898 1713168303.54
-0.108978355933 -0.260749411544 -0.537513707597 1713168303.56
-0.100055967375 -0.244507004223  -0.58796289949 1713168303.58
-0.0972412204651  -0.239428515579  -0.637733762311 1713168303.6
 -0.10170676522  -0.24951960127 -0.679953382918 1713168303.62
-0.113020607513 -0.276733211555 -0.708254700322 1713168303.64
-0.129105181144 -0.320255450236 -0.718109325597 1713168303.66
-0.146535882704 -0.376247261246 -0.707867100175 1713168303.68
 -0.16114195266 -0.438158545709  -0.67923812941 1713168303.7
-0.168802149533 -0.497620673456 -0.637061327482 1713168303.72
-0.166273557389 -0.545798337576 -0.588365860209 1713168303.74
-0.151873868169 -0.574967823795 -0.540910772138 1713168303.76
-0.125866358659 -0.580013603488 -0.501533619659 1713168303.78
-0.0904664652856  -0.559522441709  -0.474705091455 1713168303.8
-0.0494772735042  -0.516216014334  -0.461647938631 1713168303.82
-0.00764049062385   -0.456592823367   -0.460240115678 1713168303.84
0.0301611507598 -0.389820893667 -0.465719224877 1713168303.86
 0.059700878382 -0.326092425962 -0.471994262436 1713168303.88
0.0780716886306 -0.274775945798 -0.473212074145 1713168303.9
0.0841192725199 -0.242747852923 -0.465166866284 1713168303.92
0.0785889704856 -0.233242423033 -0.446199213589 1713168303.94
0.0639750355962 -0.245439586631 -0.417387520874 1713168303.96
0.0441004841769 -0.274844045024 -0.382040146863 1713168303.98
0.0234900002011 -0.314337686002 -0.344686441778 1713168304
0.00662524739844  -0.355649442747  -0.309883394032 1713168304.02
-0.00280967857002   -0.390912901847   -0.281171248829 1713168304.04
-0.00257703738294   -0.413986341697   -0.260430883722 1713168304.06
0.0076811386939 -0.421287602051 -0.247752581837 1713168304.08
0.0263109872737 -0.412024778775 -0.241769974621 1713168304.1
0.0498599093185 -0.387849369008 -0.240291034091 1713168304.12
0.0736224062892 -0.352085203497 -0.240999780055 1713168304.14
0.0924460346746 -0.308765491831 -0.242015260624 1713168304.16
 0.101672655224 -0.261726483035 -0.242165969342 1713168304.18
0.0980563071433 -0.213960707709 -0.240942484169 1713168304.2
0.0804905013773 -0.167341370505 -0.238197331652 1713168304.22
0.0503981471766 -0.122718406015 -0.233739201627 1713168304.24
 0.0116865909623 -0.0802861186295  -0.226997524755 1713168304.26
-0.0297570424295 -0.0400586707826  -0.216905607537 1713168304.28
 -0.0669703131724 -0.00227854260909   -0.202074271151 1713168304.3
-0.0930789104699  0.0323755729713  -0.181225649436 1713168304.32
-0.102517602715 0.0628368933359 -0.153759732136 1713168304.34
-0.0920808720492  0.0879216325088  -0.120266202119 1713168304.36
-0.0615926912976   0.106719155164 -0.0827933757176 1713168304.38
-0.0140479404441   0.118964767245 -0.0447484771858 1713168304.4
 0.0448215614322   0.125271426423 -0.0104110610798 1713168304.42
 0.107485803496  0.127146729912 0.0158408366101 1713168304.44
 0.165883227915  0.126790119118 0.0304037862717 1713168304.46
 0.212770936185  0.126729478355 0.0312030384719 1713168304.48
 0.242901818787  0.129396824363 0.0181447216231 1713168304.5
   0.253814967181    0.136749457557 -0.00683151991388 1713168304.52
 0.246110117136  0.150017396232 -0.040093054156 1713168304.54
  0.223181106839   0.169611991457 -0.0769511066874 1713168304.56
 0.190484725621  0.195181430569 -0.112442546363 1713168304.58
  0.15450072277  0.225762417309 -0.142093617889 1713168304.6
0.121583499057 0.259963504551 -0.16252773722 1713168304.62
0.0969113646971   0.29612558744 -0.171828095844 1713168304.64
 0.083707812519  0.332432097811 -0.169623726735 1713168304.66
0.0828491697754  0.366973604019 -0.156923111502 1713168304.68
0.0928964190518  0.397796575474 -0.135764001037 1713168304.7
  0.11051107736   0.42297578846 -0.108776158508 1713168304.72
  0.131151695483    0.44074203896 -0.0787609651191 1713168304.74
  0.149910916871   0.449674663868 -0.0483754839567 1713168304.76
  0.162347011325   0.448938628794 -0.0199695191934 1713168304.78
  0.16518344513   0.43851759508 0.0044298265808 1713168304.8
  0.15678567669  0.419377192255 0.0230449512276 1713168304.82
 0.137366727837  0.393494647935 0.0342778928664 1713168304.84
  0.10891570647  0.363714623817 0.0367335672203 1713168304.86
0.0748816924562  0.333431615771 0.0293855644747 1713168304.88
0.0396749495431  0.306144818491 0.0118680824224 1713168304.9
0.00806468865227   0.284967343479 -0.0151903881342 1713168304.92
-0.0154437826919   0.272186199852  -0.049920351086 1713168304.94
-0.0271781292369   0.268957810185 -0.0891826346462 1713168304.96
-0.0247565274623   0.275190289425  -0.128844443429 1713168304.98
-0.00739586476941    0.289619642472   -0.164365702311 1713168305
0.0239490928251  0.310046395348  -0.19160468284 1713168305.02
0.0666229414178  0.333673276606 -0.207667018287 1713168305.04
 0.116484921713  0.357478392185 -0.211576852722 1713168305.06
 0.168300711512  0.378569637236 -0.204565138186 1713168305.08
0.216300907955 0.394487039877 -0.18985491408 1713168305.1
 0.254875663464  0.403440181578 -0.171959293649 1713168305.12
 0.279340258166  0.404479204125 -0.155652993388 1713168305.14
0.286665550061  0.39759686364 -0.14488137986 1713168305.16
 0.276036578157  0.383749505733 -0.141895051676 1713168305.18
 0.249101011232  0.364776225445 -0.146836192727 1713168305.2
0.209808883274 0.343197755616 -0.15787812511 1713168305.22
 0.163823664657  0.321894088473 -0.171870188995 1713168305.24
 0.117583253889  0.303688387918 -0.185306125613 1713168305.26
0.0771791374545  0.290894156478 -0.195348724091 1713168305.28
0.0472755140961  0.284901738466 -0.200628996835 1713168305.3
0.0302916617639  0.285881754716   -0.2016010003 1713168305.32
0.0260193573503  0.292665619188 -0.200358970377 1713168305.34
0.0317553223546  0.302831181421 -0.199976640019 1713168305.36
0.0429183568102  0.312983064297 -0.203563714428 1713168305.38
0.0540180654551  0.319182338478  -0.21331069161 1713168305.4
0.0597707734654  0.317457399639 -0.229789066121 1713168305.42
0.0561337438788   0.30432163238 -0.251694234874 1713168305.44
0.0410541486576  0.277232053383 -0.276091027096 1713168305.46
0.0147956915092  0.234940057805 -0.299086219824 1713168305.48
-0.0202031306979   0.177702765778  -0.316745590258 1713168305.5
-0.0598890854469   0.107336457117  -0.326019046718 1713168305.52
-0.0994407334743  0.0271027184723  -0.325444418122 1713168305.54
  -0.1342176496 -0.058572213772 -0.315463096791 1713168305.56
-0.160615813879 -0.144529160322 -0.298282269481 1713168305.58
-0.176660615143 -0.225421439731 -0.277333073343 1713168305.6
-0.182231315347 -0.296313181545 -0.256471213379 1713168305.62
 -0.17889450123 -0.353251663884 -0.239120391997 1713168305.64
-0.169410567581 -0.393729392321 -0.227557543332 1713168305.66
-0.157046444776 -0.416962114999 -0.222488685614 1713168305.68
-0.144863150383 -0.423934278951 -0.222985297859 1713168305.7
 -0.13514072457 -0.417199042467 -0.226767938052 1713168305.72
-0.129058916673 -0.400459365837 -0.230756242395 1713168305.74
-0.126681918917 -0.377992853777 -0.231762876727 1713168305.76
-0.127217245848 -0.354009799145 -0.227194144573 1713168305.78
-0.129451790986 -0.332047309904 -0.215626520961 1713168305.8
-0.132228828091 -0.314500765782 -0.197150658369 1713168305.82
-0.134828186466 -0.302376605222  -0.17341008036 1713168305.84
-0.137148029909 -0.295317364671 -0.147311328697 1713168305.86
-0.139650050641 -0.291902019378 -0.122444426488 1713168305.88
-0.143101837708 -0.290167057178 -0.102319067431 1713168305.9
 -0.148209258978  -0.288237738198 -0.0895771441591 1713168305.92
-0.155260353602  -0.28492127826  -0.08536707066 1713168305.94
 -0.163892839396  -0.280110505235 -0.0890451774472 1713168305.96
 -0.173054916531  -0.274885904513 -0.0983009798235 1713168305.98
-0.181169020122 -0.271279801743 -0.109698387064 1713168306
-0.186450187165   -0.2717581974 -0.119510817412 1713168306.02
-0.187291705088 -0.278554718654 -0.124640172775 1713168306.04
-0.182620149341 -0.293031060875 -0.123379691127 1713168306.06
-0.172139895227 -0.315226253073 -0.115823289245 1713168306.08
-0.156425083242 -0.343699160384 -0.103827364839 1713168306.1
 -0.136860357371  -0.375687058545 -0.0905599205007 1713168306.12
 -0.115465176721  -0.407526157117 -0.0797816464055 1713168306.14
-0.0946499563922   -0.43522980044 -0.0750586244607 1713168306.16
 -0.076945036321  -0.455104990729 -0.0790939135955 1713168306.18
-0.0647243944408  -0.464302040736 -0.0932990346381 1713168306.2
-0.0599288657655  -0.461221998331  -0.117638140024 1713168306.22
-0.0637898362621  -0.445738748171  -0.150702550684 1713168306.24
-0.076567267913 -0.419219734755 -0.189935096961 1713168306.26
-0.0973391731214  -0.384349724285  -0.231926874538 1713168306.28
 -0.12390049407 -0.344778474921 -0.272740599673 1713168306.3
-0.152834360646 -0.304628960921  -0.30825250248 1713168306.32
-0.179799882888 -0.267919759082 -0.334527420667 1713168306.34
-0.200039084769 -0.237972414976 -0.348237359376 1713168306.36
-0.209051646181 -0.216887862385 -0.347103612013 1713168306.38
-0.203335722803 -0.205178706318 -0.330301009441 1713168306.4
 -0.18106184077 -0.201630183191 -0.298731700735 1713168306.42
-0.142544409326 -0.203429839684 -0.255074121443 1713168306.44
-0.0904029456425  -0.206559296499  -0.203547279788 1713168306.46
-0.0293562588573  -0.206392085948  -0.149392211349 1713168306.48
 0.0343433276483  -0.198402817817 -0.0981412403424 1713168306.5
 0.0937642987962  -0.178874816513 -0.0547994957547 1713168306.52
  0.142313630141  -0.145498770104 -0.0230865242154 1713168306.54
   0.174758176882  -0.0977792927371 -0.00487417925946 1713168306.56
   0.188080878638  -0.0372002317382 8.36963506031e-05 1713168306.58
   0.182021736128   0.0328671173303 -0.00590962218348 1713168306.6
  0.159199504404   0.107502762003 -0.0188693270695 1713168306.62
  0.124777311702   0.180795586924 -0.0337584356375 1713168306.64
 0.0857127173615   0.246576122891 -0.0452805149537 1713168306.66
 0.0497050502548   0.299260554649 -0.0487278173961 1713168306.68
 0.0240052992377   0.334713646974 -0.0407676328429 1713168306.7
 0.0142761995695   0.351007250126 -0.0200491386933 1713168306.72
0.0236801453979  0.348930612208 0.0124747353073 1713168306.74
0.0523354421374  0.332114327823 0.0535872676394 1713168306.76
0.0972267288504  0.306671867986 0.0982413028923 1713168306.78
0.152592457992 0.280341640679 0.140358631052 1713168306.8
0.210747333379 0.261216995846 0.173900244485 1713168306.82
0.263234081153 0.256259597345  0.19404362364 1713168306.84
0.302140854769 0.269874712228 0.198247622215 1713168306.86
  0.3213761809 0.302857112578 0.186963887372 1713168306.88
 0.31767620626 0.351974669671  0.16378717447 1713168306.9
0.291144047381 0.410342243231  0.13493464102 1713168306.92
0.245196119388 0.468571470443 0.108093377595 1713168306.94
 0.185907599085  0.516501015113 0.0908404819331 1713168306.96
 0.120882554326  0.545163595677 0.0889727624699 1713168306.98
0.0578862000656  0.548572776081  0.105138812157 1713168307
0.00353230358387   0.524938769331   0.138118629818 1713168307.02
-0.0377002038968   0.477046842375   0.182948787527 1713168307.04
-0.0639353438248   0.411724539729    0.23188057786 1713168307.06
-0.0757976111147   0.338533634008   0.275945089775 1713168307.08
-0.0758199209324   0.267992088888   0.306747823578 1713168307.1
-0.0675489618513   0.209716133822   0.318071803317 1713168307.12
-0.0545858224405   0.170856872964   0.306940798936 1713168307.14
-0.0397881313064   0.155105663754   0.273952946275 1713168307.16
-0.0247960268449   0.162395856922   0.222884537716 1713168307.18
-0.00995070708066    0.189278146433    0.159726575129 1713168307.2
0.00542255390312    0.22982515458  0.0914138669803 1713168307.22
0.0224733803961  0.276844293465 0.0245276704128 1713168307.24
 0.0421806014056   0.323149786436 -0.0357872433662 1713168307.26
 0.0647667129608   0.362661597849 -0.0865253886638 1713168307.28
0.0893161543892  0.391154094881 -0.127063795634 1713168307.3
  0.11369384683  0.406559902324 -0.158948943637 1713168307.32
 0.134795655396  0.408828994149 -0.185302733068 1713168307.34
 0.149090047379  0.399430502072 -0.209979588175 1713168307.36
 0.153342399528  0.380646986144 -0.236642887051 1713168307.38
 0.145364201275  0.354836314039 -0.267938706208 1713168307.4
  0.12461187598  0.323822648632 -0.304924194458 1713168307.42
0.0924817660703  0.288532449025 -0.346856183511 1713168307.44
0.0522078351379  0.248927250916 -0.391368743969 1713168307.46
0.00835607478061   0.204217866262  -0.434981176375 1713168307.48
-0.0339941920692   0.153288396163  -0.473802987585 1713168307.5
-0.0702101666483  0.0952225361564  -0.504262494173 1713168307.52
-0.0969901452235  0.0298128697068  -0.523693185236 1713168307.54
  -0.11296487455 -0.0420552955423  -0.530662606168 1713168307.56
-0.118871461272 -0.118225591466 -0.525003898013 1713168307.58
-0.117260070605 -0.195338404635 -0.507586579615 1713168307.6
-0.111810949667 -0.269141556651 -0.479920750377 1713168307.62
-0.106436592507 -0.334997913554 -0.443716255661 1713168307.64
-0.104393941111 -0.388508056619 -0.400513319414 1713168307.66
-0.107621323196 -0.426142123052 -0.351468967332 1713168307.68
-0.116448947045 -0.445767487933  -0.29733431703 1713168307.7
-0.129730255188  -0.44697152775 -0.238603843269 1713168307.72
-0.145332973785 -0.431112143537 -0.175771631874 1713168307.74
-0.160841718321 -0.401079518427 -0.109602362967 1713168307.76
 -0.174278965419  -0.360811437354 -0.0413230319848 1713168307.78
-0.184656381067 -0.314657167749 0.0273348506707 1713168307.8
-0.192219893329 -0.266716555329 0.0942708451359 1713168307.82
-0.198335370783 -0.220282434828  0.157308433883 1713168307.84
-0.205056182731 -0.177486329328  0.214580888524 1713168307.86
-0.214495327666 -0.139199381402  0.264917156751 1713168307.88
-0.228172199117 -0.105186219071  0.308128336164 1713168307.9
 -0.246505480921 -0.0744611929873   0.345114459004 1713168307.92
  -0.26858019383 -0.0457619513533   0.377752827752 1713168307.94
 -0.292242186801 -0.0180383754434   0.408582305587 1713168307.96
 -0.314488947098 0.00914339694297   0.440347611016 1713168307.98
-0.332054131353 0.0353625273321  0.475499952876 1713168308
-0.342041860222 0.0593167647691  0.515757587953 1713168308.02
-0.342463173426 0.0790099611526  0.561812107389 1713168308.04
-0.332558502521 0.0921117639828  0.613230103611 1713168308.06
 -0.31284611155 0.0964114234394  0.668556352855 1713168308.08
-0.284902628728 0.0902685746638  0.725585792384 1713168308.1
-0.250942962033 0.0729665913578  0.781745972233 1713168308.12
-0.213309885793 0.0448980708858  0.834521224663 1713168308.14
 -0.173998887352 0.00755095427229   0.881850642336 1713168308.16
 -0.134327635926 -0.0366923490725   0.922439229642 1713168308.18
-0.0948157248153 -0.0848924271543   0.955933763725 1713168308.2
-0.0552815445312  -0.133952749461   0.982933493123 1713168308.22
-0.015106785589 -0.181002441144   1.00483138378 1713168308.24
0.0264185463271 -0.223694762498   1.02351093546 1713168308.26
0.0697674823893 -0.260379370673    1.0409507727 1713168308.28
 0.114943108749 -0.290137474355   1.05880896492 1713168308.3
 0.161384226259 -0.312698211572   1.07806780046 1713168308.32
 0.208010473832 -0.328275634058   1.09881454258 1713168308.34
 0.253372574985 -0.337374813937   1.12021183656 1713168308.36
0.295853942156 -0.34061254445  1.14067317123 1713168308.38
 0.333868576024 -0.338585972941   1.15821065666 1713168308.4
 0.366013606123 -0.331806123076   1.17087718182 1713168308.42
 0.391156538219 -0.320696984326   1.17719737162 1713168308.44
0.408460727417 -0.30564718826  1.17648175358 1713168308.46
 0.417371947673 -0.287091352649   1.16894744929 1713168308.48
 0.417598905209 -0.265592956295   1.15561865944 1713168308.5
 0.409117379681 -0.241901496335   1.13803716474 1713168308.52
 0.392211538953 -0.216964325043   1.11786122911 1713168308.54
  0.36754245724 -0.191886268124   1.09645757963 1713168308.56
 0.336212353618 -0.167843671302   1.07458865203 1713168308.58
  0.29978266089 -0.145969093011   1.05226715537 1713168308.6
 0.260209705231 -0.127225749937   1.02880111708 1713168308.62
 0.219682468072 -0.112287838999   1.00299922043 1713168308.64
 0.180375854498 -0.101437562656  0.973464196199 1713168308.66
  0.144160190311 -0.0944862027561   0.938883844459 1713168308.68
  0.112324470489 -0.0907274527225   0.898240253451 1713168308.7
 0.0853731369692 -0.0889361075091   0.850893874432 1713168308.72
 0.0629452102621 -0.0874308081055    0.79654772511 1713168308.74
 0.0438845660546 -0.0842204889929   0.735141076538 1713168308.76
0.0264649018368 -0.077245191651  0.666745811655 1713168308.78
0.00874509270805 -0.0647006588094   0.591533201318 1713168308.8
-0.0109972905847 -0.0454057934034   0.509845025918 1713168308.82
-0.0338304666921 -0.0191418866621   0.422352080362 1713168308.84
-0.0598209114777  0.0131247092606   0.330234066966 1713168308.86
-0.0878605285276  0.0492177830507   0.235287923642 1713168308.88
-0.115730018937  0.085970306808   0.13987991895 1713168308.9
 -0.14041352727  0.119676035577 0.0467001763342 1713168308.92
 -0.158620880616    0.14669919405 -0.0416572535679 1713168308.94
-0.167418525163  0.164118680005 -0.123201868184 1713168308.96
-0.164836115453  0.170264865482 -0.197012963073 1713168308.98
-0.150314332298  0.165026716921 -0.263529880738 1713168309
-0.124891796436  0.149859861691 -0.324564681584 1713168309.02
-0.0910854617551   0.127497249086  -0.383000339822 1713168309.04
-0.0524846674532   0.101432563136  -0.442216758028 1713168309.06
-0.0131390207235  0.0752933672345  -0.505358765113 1713168309.08
0.0231376188913 0.0522349100346 -0.574604743829 1713168309.1
0.0534084281005  0.034466816763 -0.650599860141 1713168309.12
0.0760735856269 0.0229838257642 -0.732183892813 1713168309.14
0.0910594076627 0.0175233373644 -0.816480525566 1713168309.16
0.0997008961287 0.0167300970742 -0.899338455051 1713168309.18
 0.104341693084  0.018479036395 -0.976041197309 1713168309.2
 0.107731061941 0.0202918611579  -1.04214597425 1713168309.22
0.112340271192 0.019778435787 -1.09428309543 1713168309.24
 0.119742559087 0.0150372345384  -1.13075270719 1713168309.26
   0.13019455076 0.00495877039153   -1.15179721709 1713168309.28
0.142519230681 -0.01060809736 -1.15949841925 1713168309.3
  0.154325885818 -0.0308455077648   -1.15733201849 1713168309.32
  0.162524883099 -0.0541060337399   -1.14948633451 1713168309.34
  0.164024918049 -0.0781749404038   -1.14009595625 1713168309.36
0.156456684024 -0.10061299913 -1.13254516789 1713168309.38
 0.138761182809 -0.119130481086  -1.12896433328 1713168309.4
 0.111513577151 -0.131941555174  -1.12998971346 1713168309.42
0.0769150212841 -0.138049736727  -1.13480053698 1713168309.44
0.0384592590339 -0.137418977078  -1.14139932314 1713168309.46
0.000349834438898    -0.13099463182    -1.14706813611 1713168309.48
-0.0332081273838  -0.120557942921   -1.14891451902 1713168309.5
-0.0586995625041  -0.108427479834   -1.14441380493 1713168309.52
-0.0738450479347  -0.097055852421   -1.13185746007 1713168309.54
-0.0779070623783 -0.0885996023032   -1.11063025739 1713168309.56
-0.07171338341 -0.08455339707 -1.08126400481 1713168309.58
-0.0574076493839 -0.0855295456042   -1.04525310005 1713168309.6
-0.0379868077251 -0.0912307705732   -1.00466458359 1713168309.62
-0.0167239007306  -0.100616026223  -0.961624268507 1713168309.64
0.00340492514664  -0.112209159598   -0.91779760808 1713168309.66
0.0201741068774 -0.124463078054  -0.87399492754 1713168309.68
0.0323573164349 -0.136079457696 -0.830006602919 1713168309.7
0.0397347834886 -0.146200477713 -0.784716769095 1713168309.72
0.0428810495639 -0.154430105946 -0.736468516019 1713168309.74
0.0428070252469 -0.160695753408 -0.683581771126 1713168309.76
0.0405626055743  -0.16501046118 -0.624879929776 1713168309.78
0.0369096293007 -0.167226154841 -0.560077717163 1713168309.8
0.0321483839806 -0.166870449195 -0.489922722529 1713168309.82
0.0261319416899 -0.163132015281 -0.416054929981 1713168309.84
0.0184461495015 -0.155010795213 -0.340630689696 1713168309.86
0.00868604586186  -0.141594555392  -0.265824539322 1713168309.88
