 -0.31850645093187 -0.203091628849545  0.165371161923103 0.412359297445534 1713168294.60138
 -0.261561823273852  -0.283582609684404 -0.0647301077636707 0.391182400883341 1713168294.62134
-0.135254292056897 -0.277161158518428  -0.17058082603222 0.352434177572102 1713168294.6428
0.0495457910059398 -0.289936321073266  0.161067065820312 0.335351241798609 1713168294.66394
0.0703085517627443 -0.322606377345441  0.374079155992845 0.498952284395254 1713168294.6842
0.0760635662884273 -0.295983645934221  0.114996877072362 0.326521464092982 1713168294.7036
 -0.11351189060165 -0.165032756625907 -0.167249252535396 0.260946493636445 1713168294.7211
 0.199007282754111 -0.087749449307868 -0.264225450347302 0.342226464573159 1713168294.74264
0.0834620261140627 0.0339903898204086 -0.165646476226542 0.188573623525344 1713168294.76148
 -0.112731577952101  0.0607441428939455 0.00317750908591802 0.128095105790509 1713168294.78246
-0.174717612497449 0.0861680262143156 0.0228761150777281 0.19614915115679 1713168294.8018
0.0168242755326708  0.162873608052157 -0.163171800982099 0.231162075355947 1713168294.82136
 -0.104277423330506   0.195595374038671 -0.0154356421118022 0.222192687569102 1713168294.84248
0.0844859911637521  0.224745356971737   0.20399446736578 0.315058884812226 1713168294.86202
-0.181316180379431  0.326444662757736  0.303688222229701 0.48131924066199 1713168294.88384
-0.166758380569265  0.357154283952944  0.105607802760765 0.408069293184357 1713168294.90146
 0.309088384885197  0.566986942608872 -0.123209212530213 0.657411844137456 1713168294.92256
0.304995252862284 0.628290115509001 -0.17370397354436 0.719683016292549 1713168294.94232
0.023108959425302 0.681584049198346 0.131498988905995 0.694537849372252 1713168294.96414
-0.0578016985981406   0.688486597697984     0.3582355229848 0.778259289375186 1713168294.98442
0.0378868833143042  0.629939979553655  0.185039649103291 0.657646915531123 1713168295.00404
 0.264796144336917  0.620276813421288 0.0351775064019324 0.675350116813807 1713168295.02426
0.600028390228706 0.555873709167166 0.231331904565062 0.850025940600294 1713168295.0427
0.307484008010683 0.556601367285727 0.371975404653906 0.736693422608137 1713168295.0645
-0.156023691130609  0.427244002010808  0.172971473641761 0.486620961470047 1713168295.08242
0.0733032607348456  0.558291413812542 -0.327320114528752 0.65130724558098 1713168295.10216
  0.02458368738814  0.520915628966994 -0.280051319676299 0.59193428000084 1713168295.12196
0.00198051007900548   0.559775564052222   0.418092782779179 0.698680312834271 1713168295.14296
0.189101829536576 0.602450566703668 0.758784542021574 0.987147490736081 1713168295.16358
 0.178540953705504  0.686022522222557 0.0742972133148571 0.712757917566001 1713168295.18342
 -0.04437189868434  0.697897027336016 -0.090909446623864 0.705190508758277 1713168295.20372
-0.0610769567340669   0.548361924419934 -0.0640240510027998 0.555455015194064 1713168295.22144
-0.0273785081603446   0.608800974758326   0.208605097646223 0.644130651607082 1713168295.2428
0.0433433634338104  0.700556647628573  0.321314147181269 0.771946270713944 1713168295.2623
-0.028461030254367  0.802404671058705   0.32688333311015 0.866900224850109 1713168295.2828
-0.0718078819636826   0.729237552529527    0.15045575976723 0.748051278709221 1713168295.30298
0.134486292725446 0.660616640129075 0.163756970385852 0.693770317537738 1713168295.32314
0.292748800271867 0.688493836193092 0.234008617110938 0.78389135434617 1713168295.34264
0.275758310243078 0.876659128814663 0.177033113860837 0.935903091781123 1713168295.36274
0.0562698571462861   1.18718415556658 0.0134475489619084 1.18859301387173 1713168295.38404
 0.0837488943245379   0.960971718643199 -0.0664011074893536 0.966896906815023 1713168295.40222
 0.029664235545788  0.925597379349212 0.0475631467810552 0.927293226795258 1713168295.42278
-0.0579761430304218   0.784163108845034   0.256278465092065 0.827013703697912 1713168295.44248
 0.21471914282366 0.714762058241872 0.216435866570514 0.777067303735792 1713168295.46294
  0.192734599642077   0.623488860906873 -0.0833075778755489 0.657894473381281 1713168295.48354
 0.163911892825416  0.492099836014378 -0.173719363468229 0.546998879760092 1713168295.50332
 -0.09475210748656  0.335954982811479 -0.104237073325109 0.364292574456837 1713168295.52312
-0.191614466027586  0.299044018362386  0.104638335831762 0.370260192074439 1713168295.54232
-0.150896442093559  0.428773621629767 0.0162049557044359 0.454839703006877 1713168295.5646
-0.0456400537285647   0.432458987625984 -0.0961631473742566 0.445366300247066 1713168295.5829
0.429758882010271 0.468166210087884 -0.12514190075071 0.647713510943126 1713168295.60316
-0.0955371544737446   0.365474090666558  -0.116828893820961 0.395408205864417 1713168295.62432
 -0.432509492279837    0.20548054388727 -0.0406371446638234 0.480560185985896 1713168295.64312
-0.290230306677124  0.168519280379193 -0.153211213714505 0.368925540971739 1713168295.66374
0.0423337073139085  0.170375391176741 -0.334503109437266 0.377772745068734 1713168295.68328
-0.0953576031851486   0.215129858563518  -0.329976487393954 0.405288058994622 1713168295.70342
-0.113726583894149  0.232243933618428 0.0641458715526484 0.266431367192458 1713168295.72178
-0.0665998539911925   0.479260619215952   0.400126720568683 0.627875524444101 1713168295.74296
0.170272389712067 0.681782269483826 0.149627935030344 0.718476352166318 1713168295.76276
    0.2196498798678   0.830013341987553 -0.0969232056486652 0.864038381900075 1713168295.78218
0.414298119274291 0.878673714907638 0.110906938620997 0.977758036498849 1713168295.80436
0.222583108513465 0.571295840439778 0.250053900654023 0.662154914450992 1713168295.8226
-0.214270268243416  0.423221668735002   0.19606113774609 0.513291631019089 1713168295.8427
  0.0141173725345179    0.414708887030516 -0.00932870544530879 0.415053955449954 1713168295.86188
-0.0083951578346595   0.433509506636428  -0.180425209546384 0.469632012600381 1713168295.88384
-0.0566909097379597   0.180934087964996 -0.0183486640303539 0.190493246353621 1713168295.9033
 0.0992169486250301 -0.0447648552190785   0.230204172855897 0.254640641605999 1713168295.92376
-0.0224879464039047  -0.111157222778638  0.0459387453901317 0.122360141538591 1713168295.9408
-0.0308090842693898  -0.126312240768887  0.0190737690485889 0.131406965216059 1713168295.9612
  -0.03414073493543  -0.290899395020303 -0.0516171380472284 0.297409442932292 1713168295.98138
0.00229995304514789  -0.492140696233621  0.0297115998643751 0.493042121770366 1713168296.00324
 -0.316090965716664  -0.592299996602073 -0.0602818391912861 0.674067270173232 1713168296.02362
 -0.19417284214231 -0.649449452203608 -0.128029996416816 0.689840100005558 1713168296.04248
 -0.13763339101261 -0.870062722870252 -0.128012022944955 0.890134355065845 1713168296.06414
 0.263896731363141 -0.839933740118273 0.0590002709144098 0.882389485760792 1713168296.08336
 0.710552092917951 -0.804328868276991  0.245473181437279 1.10094790426194 1713168296.10352
  0.27423858675353 -0.781765366591459   0.18776150583248 0.849481179272933 1713168296.12412
-0.081022444961466 -0.511769618888304  0.125066078326309 0.533023736199933 1713168296.14232
-0.00777278332981765   -0.397591394068988    0.342561844713467 0.524869460201208 1713168296.1644
 0.120069188097832 -0.260807017593108  0.164520294865083 0.330913640968121 1713168296.18438
0.0685115457468303 -0.123550921245364 0.0150769236283494 0.142077358038828 1713168296.20224
 0.260845027964164 -0.206044922726792 0.0645774301874807 0.338622036029455 1713168296.2228
-0.0296178772993436  -0.228863474105873    0.30516252268159 0.382596228006655 1713168296.24312
-0.243224371310239 -0.115327675027999  0.320620095837213 0.418635656963532 1713168296.26264
 -0.289131277397437 -0.0816597619607129  0.0576680069372631 0.305926153372133 1713168296.2834
  -0.3011711890278 -0.138538518371817 -0.226611072455192 0.401558942538165 1713168296.30382
 -0.226480960219907   -0.29546971071828 -0.0790987015631435 0.380595033970558 1713168296.324
-0.280961096752394  -0.41826841036124 0.0485462061186782 0.506205822885261 1713168296.34296
-0.273861372138663 -0.545347887898628 0.0429866393911075 0.611761572143353 1713168296.3626
 -0.16429809343728 -0.566714678375001 -0.182938507161187 0.617758761649861 1713168296.38218
-0.156020023326848 -0.608126842733337 -0.455852626481685 0.775862179515136 1713168296.40236
-0.0473522478843195  -0.655242171126459  -0.365153020277204 0.751612444295448 1713168296.42276
0.0788136677994945 -0.665863670706139 0.0397810755663142 0.671690818882822 1713168296.4428
 0.220395044829968 -0.598083714964549  0.107827553709781 0.646455634386797 1713168296.4622
  0.13322817197039 -0.523040909412321 -0.187410636691478 0.571353030507885 1713168296.4826
 0.126180789602011  -0.36821441861065 -0.336644705519163 0.514619381185211 1713168296.50338
0.0457667453712402 -0.128450726928229  -0.26638445468004 0.29925718358203 1713168296.52186
0.00460510385957633  -0.210852829495581  -0.190902092792244 0.284470968150194 1713168296.54264
 0.101137862287795 -0.281193386255148  -0.19934928975411 0.359219608300062 1713168296.56192
0.0869889440350122 -0.399624451080811 -0.176102227602017 0.445285046742374 1713168296.58244
-0.103256159801624 -0.360924511613453  0.197172605938717 0.424034637916589 1713168296.60232
-0.208672396903884 -0.282598138706115 0.0779525406524907 0.359836734956217 1713168296.6224
 -0.12826570874368 -0.176489705311957 -0.221641696890143 0.311007636435123 1713168296.64248
-0.0353322229538254  -0.117851495122242  -0.423274549630336 0.440793245463415 1713168296.662
-0.0618449895357036 -0.0789719982685194   -0.29708042880694 0.313557268168527 1713168296.68286
-0.310200008222358 -0.114523731148893 -0.115801283118995 0.350356485981665 1713168296.7015
-0.248850314362296 -0.152928825563785  0.143247699076378 0.325320776983593 1713168296.72186
-0.0522543236093031   -0.15987025432927   0.172149244779491 0.240674832571501 1713168296.74232
  0.110218399119152 -0.0986361465681915  -0.033921482242059 0.151749306000748 1713168296.76384
0.0346787437954247 -0.167037858920379  -0.17190819785161 0.242191432698437 1713168296.78456
 0.0523845829636917  -0.227337277002732 0.00325397990750291 0.233317317043839 1713168296.80488
0.00854977460719465  -0.287739276805611  0.0572388440430685 0.293501746723655 1713168296.82516
-0.0861696760937531  -0.287458912163878  -0.168086258836306 0.343963413272587 1713168296.84312
 0.105369926973526 -0.361005106282558 -0.555182993022104 0.670563691243023 1713168296.86504
0.0907806197540549 -0.201011989363757 -0.599287831430153 0.638586599993423 1713168296.88306
-0.109464816594728 -0.156962009105148 -0.275236153032445 0.335223147038717 1713168296.9033
-0.158374298032941 -0.218203098441095  0.125108374201625 0.297232427137577 1713168296.92304
0.00869183240477506  -0.216044989858273  0.0583877374276115 0.223964536200108 1713168296.94296
-0.0759019887929519   -0.19312771711996  -0.333567616338253 0.392844475196326 1713168296.96424
-0.0617350766141336  -0.160744000780281  -0.511404595843664 0.539615153717374 1713168296.98372
-0.193181872488019 -0.218211743165886 -0.441137119533526 0.528713115918083 1713168297.0044
-0.303959820279806 -0.247617741294725 -0.256357717450322 0.468428647122241 1713168297.02134
-0.316210592522279  -0.45267127478261  0.131355759214633 0.567586783950663 1713168297.0428
-0.118566630146258 -0.444046094264405   0.27906218018697 0.537690133837713 1713168297.0624
0.0275615889289086 -0.347544695906587 0.0198110931261256 0.349198276410323 1713168297.0828
 0.130062436588919  -0.24933205353914 -0.232988623855281 0.365193659829232 1713168297.10274
-0.0665144737474401  -0.207554908296406 -0.0882310869522152 0.2351338765057 1713168297.12218
-0.0420310573428678  -0.216090294611758 -0.0802554340668593 0.234312952915574 1713168297.13978
 0.0539540795182307  -0.275928651707003 -0.0762577006320485 0.291312376041924 1713168297.16214
0.0587874763312185 -0.252832086125673 -0.101498499961512 0.278714866202882 1713168297.1846
 0.0403859627677153  -0.128201541231669 -0.0409302599344007 0.140506040230121 1713168297.20246
0.0176559994662148 -0.321389812157877  0.100483092458078 0.337194302362844 1713168297.2224
 0.100692706056908 -0.473922328700138  0.255928183703248 0.547942177521741 1713168297.24248
 0.146393683374984 -0.422960845160942  0.197545729393777 0.489235426224505 1713168297.2642
0.0995297715524823 -0.225724266362977 -0.136009568526705 0.281702365238941 1713168297.28498
0.0657906058364281 -0.111662336858198 -0.150323015024109 0.19847894128823 1713168297.30422
0.0669000723360114 -0.171883350671406 0.0156859526949443 0.185109575734323 1713168297.32376
0.0512492081455878 -0.322296601156819  0.159177778352829 0.363096606393023 1713168297.34226
 0.175470591927896 -0.372262430654906 0.0458114859094046 0.414086872708919 1713168297.36482
  0.141558585264656  -0.190697535525308 -0.0927832821398184 0.254976705920745 1713168297.38342
-0.235147053777148 -0.165538783121256 -0.217046943361288 0.360286831898999 1713168297.40346
-0.215873863608397   -0.2136035572542 -0.106318485820052 0.32176330599982 1713168297.4226
-0.0371298009992945  -0.302306124760647 -0.0130187986098286 0.304855874647825 1713168297.44312
0.0836063365960262 -0.321995126895806 0.0501664483140691 0.336433580072058 1713168297.46472
 0.0562594631621219  -0.180236470885495 -0.0569903677196127 0.197226303127561 1713168297.48394
 -0.216787536093263 -0.0138593120328661  -0.114396118176189 0.245510464520747 1713168297.5058
-0.0779017366632509   0.105469098899001 -0.0497197695518012 0.14023004985381 1713168297.52248
-0.0269045568254239  0.0929628905292509   0.028899072124492 0.101000547341005 1713168297.54216
 0.102300694646203  0.121176839038924 0.0595849991604955 0.16940965311787 1713168297.56334
 0.0918804254061698    0.21170754626582 -0.0283327797139407 0.232518481254785 1713168297.58464
0.0620343221050244  0.264886468792238 0.0150719556717842 0.272470663220875 1713168297.60444
0.0609675433222289  0.187509150303091  0.166046913611979 0.257775678267363 1713168297.6235
0.0644891545364619  0.115062434573861  0.178387824130192 0.221856779704376 1713168297.6415
0.346052106015979 0.173054171144246 0.325863403956999 0.505852512365965 1713168297.66346
0.344841820067368 0.293772366349087 0.339951355227196 0.566378855553881 1713168297.6856
0.0622970889260759  0.227541213220036  0.219729909099623 0.322392872060221 1713168297.7033
0.0936786556261005  0.258342795837721  0.128867191819467 0.303518440640102 1713168297.72284
0.127714293475286 0.289100512269131 0.211788646669531 0.380452990276429 1713168297.74264
 0.11731292211332 0.382216591391279 0.416295472570243 0.577194737425781 1713168297.76454
0.162881141146143 0.386832067007242 0.293021625846237 0.511889624254817 1713168297.78528
0.0142865037565006  0.300517462159219  0.176560716812858 0.348838839542951 1713168297.80502
-0.107125943394212  0.314668479786355  0.173405158701345 0.37491541577187 1713168297.822
0.160469358917138 0.500151592199227 0.336057360051355 0.623567622295597 1713168297.84248
-0.0488078124208854    0.34088588928168   0.389036157272728 0.519552233880487 1713168297.86258
 0.18894376217626 0.229280353442966 0.329785998043571 0.443878395786329 1713168297.88306
 0.27089282695547 0.335943460742754  0.15449997473342 0.458378854992649 1713168297.9028
-0.125265370300055  0.436061157637651 0.0738355275045001 0.459665564642998 1713168297.92252
0.0401296652163442   0.37977012129867  0.350259313064775 0.51818657011755 1713168297.94232
0.0963587419562747  0.116371923527912  0.506785418724587 0.528827847573137 1713168297.96268
  0.325551146573803 -0.0594675880108898   0.403243728954149 0.521656446332448 1713168297.98428
0.079400872768954 0.097999958011121 0.180951176051661 0.220571572241602 1713168298.0025
 0.295251461614051  0.379864221493197 0.0922802411797057 0.489883552763359 1713168298.02272
0.000417791412925554     0.47734040413496  -0.0100834545986599 0.477447077722793 1713168298.04312
-0.0636576407660723   0.497991694924675  0.0284014726413644 0.502846564162519 1713168298.06348
-0.10797879611162 0.470395238142294 0.126614025319587 0.498961132638895 1713168298.08362
-0.0340260572829989   0.481354284284138   0.142194477345858 0.503069566720729 1713168298.10396
-0.0173461141406279   0.495708870720915   0.190228817044223 0.531239282264809 1713168298.12448
 0.21630993131038 0.290649765066961  0.22760403494642 0.427867817253029 1713168298.14296
 0.199035325823512 0.0654962790536523  0.255442859382178 0.330387466325357 1713168298.16386
0.148486376146667 0.052990728982436   0.2033672578688 0.257321710767542 1713168298.18256
0.0900571723206301  0.151817128925915 0.0649682874338774 0.188094692359424 1713168298.20238
0.0591874710732554  0.120825265471523 -0.332797440790382 0.358965232445901 1713168298.22258
 -0.07082652530439 0.0624789371347612  -0.18468193950874 0.207430549950804 1713168298.2428
0.177909861619635 0.113770002414839 0.171642758164117 0.272133733192296 1713168298.26244
0.0878601660313022  0.270287720094047  0.234980739111895 0.368769315646325 1713168298.28266
-0.0594096876091264    0.48299838982195  0.0672564614945758 0.491264070704526 1713168298.30352
0.0382079951734479  0.475951171554586 -0.029456295048127 0.478390052067682 1713168298.32212
 0.190650712256889  0.480126997920128 0.0197902856643345 0.516973194297857 1713168298.34264
0.0465795516300235  0.395842047555805  0.202422255104355 0.447029473977677 1713168298.36262
0.0346571377015068  0.363288111250507  0.382295529673864 0.528516074474791 1713168298.38222
0.0344068926202215  0.456206877863334  0.329673583502606 0.563908876795747 1713168298.4023
0.178176790945919 0.529813740725423 0.166620504526083 0.583276916414303 1713168298.42258
0.264733145656164 0.530278412831864 0.147197556140258 0.610693011306133 1713168298.44248
0.0869626467012974  0.446024851506921 0.0617475755262124 0.458599425606302 1713168298.4614
-0.216163842471159  0.526825129144285 0.0213898334308012 0.569850022781421 1713168298.482
  -0.213955926626519    0.513552914922609 -0.00188490709668905 0.556342779083978 1713168298.50088
-0.148742950427478  0.481889841038183  -0.15523030025788 0.527672938775363 1713168298.52108
  -0.1046992775003  0.410457590843435 -0.191776366247615 0.464989835632157 1713168298.54232
-0.101823471656773  0.282114905802801 0.0132167034348526 0.300219121153277 1713168298.56284
-0.0768705430340892   0.233485650885287  0.0521755110581231 0.25129049625853 1713168298.5827
-0.0995827617921605   0.223455242898582  -0.149723588954197 0.286820719464867 1713168298.60266
0.0781358854443902  0.240930889239274  -0.14849724731812 0.293605760237883 1713168298.62318
 0.0523932874649602   0.230704729227341 -0.0638186673575462 0.245035815673015 1713168298.64312
-0.000771518461120139     0.222637649630508     0.045297306469338 0.227200273430975 1713168298.66362
-0.00656373524641682      0.2841682113094   -0.109480031732271 0.304598969609662 1713168298.68374
0.0259473741233601  0.394445393799337 -0.206983299432648 0.446209055440874 1713168298.70272
  0.01660913446987  0.551803195202153 -0.134136177985274 0.568115431780937 1713168298.72358
 0.0132896040508011   0.696068356547225 -0.0447430149802635 0.697631498680862 1713168298.74296
-0.0472747884574663   0.712145215616941 -0.0532060742585517 0.715693090708443 1713168298.76304
-0.0647891942097142   0.568199792739477  -0.199830791487251 0.605789558660389 1713168298.7823
-0.0638483258415799   0.564885673750485  -0.215862106369467 0.60808624559973 1713168298.80314
0.0648372385415967  0.513968578726167 -0.119508888169473 0.531648325278092 1713168298.8219
-0.0919626854471727   0.590112413363323   0.058837204161931 0.600126330461957 1713168298.8428
-0.285857679521891  0.389899850987033 0.0269917506948585 0.48421592430126 1713168298.86078
-0.221118467367408  0.309806173879299 -0.103965635188848 0.39456570464862 1713168298.88076
-0.0368189399334187   0.255008218157381 -0.0332413493440269 0.259788015450742 1713168298.9013
0.00479132599499355    0.27174211740484  0.0220780936413033 0.272679624092615 1713168298.92312
 -0.163479482204982   0.259887563610704 -0.0312473905950984 0.308615434222787 1713168298.94264
 -0.0311684543026085    0.251444263671623 -0.00305767343264834 0.253387133935011 1713168298.96222
 -0.117944397269007   0.318283896421338 -0.0156760461550992 0.33979590637816 1713168298.98188
-0.0764678810732416   0.312004657460502  0.0559930898091186 0.32608199769268 1713168298.99986
0.0809101981021319  0.411917535192423  0.111095218326019 0.434240329185157 1713168299.02264
  0.124020419512861   0.260293901444659 -0.0187909616946949 0.288941308619656 1713168299.04154
-0.0306518810278903   0.150648893649976  -0.147060253444649 0.212747138903709 1713168299.06134
0.0113976225110719 0.0658935411630986 -0.102477190237773 0.122366004612991 1713168299.07992
 0.032109521847005 0.0837899692039291  0.149350108568617 0.174233278284879 1713168299.1018
0.0829007755500305  0.104111005314785  0.258711582354054 0.290935255441121 1713168299.12214
  0.108135092251947  0.0659784696682402 -0.0113506872868425 0.127181739011478 1713168299.14232
-0.0572824912627809  0.0363255582218142  -0.220019113389179 0.230237356312909 1713168299.16378
 -0.27100986624755 0.0181906669020784 -0.197854386615944 0.336041078246438 1713168299.18044
 -0.201157858601502 -0.0564219910225487 -0.0434172382444016 0.213384586427561 1713168299.2024
0.0537987265078916 -0.118831019086583 0.0635595159678585 0.14510315689569 1713168299.22214
-0.0353310692777205  -0.251998827155042  0.0851717034573174 0.268339174206162 1713168299.24312
-0.160100313415303 -0.230339433958098 0.0265762733032126 0.281770586638318 1713168299.2618
 -0.247583449717791  -0.253944343733458 -0.0230443678040005 0.355410097177703 1713168299.2815
-0.282297990661603 -0.347324843862401 -0.048540763444643 0.450203185696646 1713168299.30168
0.0127161857312554 -0.334721071127566 0.0830546456331951 0.34510573886505 1713168299.32156
0.0533857406863073  -0.42840751948638 -0.126099395737343 0.449760044541999 1713168299.34296
-0.184084349907236 -0.356292487453439 -0.249948732130657 0.472552381424802 1713168299.36108
-0.129417618462032 -0.409197037924428 -0.231840853182526 0.487792288806324 1713168299.38138
0.0898135837861487 -0.481882875303498 0.0856129721226681 0.497601413119934 1713168299.40176
  0.0277880802216239   -0.539406311478366 -0.00413066360316467 0.540137397933991 1713168299.4238
-0.0849544505582748  -0.432084943108681 -0.0800450589328773 0.447573310408986 1713168299.4428
-0.158345261887865 -0.541886700333996 -0.258897443345231 0.62108155996769 1713168299.46386
-0.300084740711751 -0.511840244387563 -0.393535851089553 0.71197033187875 1713168299.48426
-0.268795284494028 -0.423789120059881 -0.344853539466228 0.608910573836371 1713168299.5029
0.0179347019880366  -0.48082535506839 -0.307444578208958 0.570996361006029 1713168299.52356
-0.251235471343546 -0.357698964564834 -0.518205781240154 0.677941769640053 1713168299.54264
-0.439838270343948 -0.281056174540439 -0.607259860923381 0.800758900041171 1713168299.56344
-0.163502424923572 -0.210866494242576 -0.450025250236194 0.523182995901235 1713168299.58298
0.0284187040683828 -0.314648713893612 -0.129327824676249 0.341375339079027 1713168299.60434
 -0.195536338710022  -0.334323552588237 -0.0737984598729836 0.394275170725934 1713168299.62262
-0.0235810083466178  -0.386368315841757  -0.403126030430975 0.558880251800038 1713168299.64248
-0.152553568455222 -0.371055884506276 -0.652089687084657 0.765621329821292 1713168299.66292
-0.332202108765062 -0.289295743887456 -0.393540450533521 0.590698192570011 1713168299.68168
-0.298576447476508 -0.319691858389311 -0.167302967698264 0.46833861927963 1713168299.70292
-0.350899040462774 -0.272287453505495 -0.203804790503173 0.488678817390569 1713168299.7226
-0.399883046227277 -0.142479007332206 -0.249456774597154 0.492377294950521 1713168299.74232
 -0.327584467286201 -0.0291932056241349   -0.16197545944296 0.366605886373303 1713168299.76142
  -0.30140143652328 -0.0310268371061904  0.0449874784316723 0.306315790932742 1713168299.78214
 -0.354356963727029 -0.0873404175931518   0.176054607837273 0.405206652497119 1713168299.80204
 -0.357742971611656 -0.0557321228306104   0.100176044035495 0.375661207807441 1713168299.82278
  -0.705223922610158 -0.00126811033811814  -0.0182928718716262 0.705462272759359 1713168299.84312
 -0.803379490854361 0.00780692642845518   0.190444602409062 0.825680750055624 1713168299.86354
 -0.678345593036871 -0.0627714921670113   0.261511005519935 0.729712963999863 1713168299.8834
 -0.550913524784014 -0.0752289827448805   0.252054529542502 0.610488818487012 1713168299.9032
 -0.583484764284392 -0.0523324373419432   0.339936991530343 0.677311089796159 1713168299.92436
 -0.592918468225846 0.00464346472799361   0.392946511938533 0.711323297082714 1713168299.94296
-0.444348074816591 -0.023940750692729  0.496789654385776 0.666947023264727 1713168299.96362
 -0.384570964576879 -0.0136982995856245   0.432735084640793 0.579087319569512 1713168299.98378
-0.476562471165209  0.115808281257458    0.4258437380374 0.649512306393468 1713168300.00372
-0.44370574102104 0.222662062377499 0.491796330108527 0.698796686415617 1713168300.02284
-0.479394526560701  0.254367091973374  0.536326067657405 0.762998938678296 1713168300.0428
-0.407375456186943  0.162112560671546  0.575653863777152 0.723610817713894 1713168300.0635
-0.358668190056034 0.0465418704246506  0.510926693797747 0.625983308639929 1713168300.08314
 -0.367929441208501 -0.0319868368885742   0.589746764131776 0.695842279001525 1713168300.10326
 -0.38971070446348 -0.038155729039956  0.638578557203697 0.749074673548871 1713168300.12304
 -0.109289306556584 0.00559559263352069   0.647976030194087 0.657151732015238 1713168300.14264
-0.290027056619059  0.064409853068926  0.586470025581366 0.657427877146142 1713168300.16244
-0.407490254278323 0.0354240743326754  0.551747531343684 0.686824949108569 1713168300.1822
-0.549551014066117 -0.127777283295422  0.457827107775216 0.726594117648412 1713168300.20276
-0.404776695176988 -0.104130369079629  0.367168107662588 0.556326995576872 1713168300.22252
-0.537789093601941 0.0387822583791462  0.403601520679939 0.673509732860145 1713168300.24248
-0.216297710814021 0.0983451195344165  0.587285702188335 0.633530550356074 1713168300.26212
-0.173321822887226 0.0148994082885581  0.681155720308603 0.70301889161347 1713168300.28264
0.00832690148270744  -0.142070975899688   0.536091870227448 0.554660249887582 1713168300.30308
-0.0137606848372054  -0.189132056289329    0.29605129129877 0.351577385852799 1713168300.32272
0.0487939682884042 -0.135841683121178  0.230615236658174 0.272061025495071 1713168300.34232
0.0535399622482251 -0.112501717312725  0.422624795370191 0.440607400774828 1713168300.36292
-0.00889796709224452   -0.175818024371259    0.583777012542897 0.609743185190042 1713168300.38326
0.0351481137174523  -0.28828553654317  0.418042065256317 0.509021717416502 1713168300.40382
0.0691780453569647 -0.313576651031371   0.18769265604327 0.371946839163929 1713168300.42348
 0.243302987994772 -0.286707916361158  0.132263436508446 0.398611828610698 1713168300.44312
 0.253235890336872 -0.251219291237774  0.354120872282184 0.502634201612478 1713168300.46282
-0.0902154751265099  -0.173321545256888   0.371247447288259 0.419528136268101 1713168300.48258
-0.00324688743224415   -0.193064456545461    0.294306306733138 0.351995211390854 1713168300.50308
0.0912690279018472 -0.249916958655868  0.178890923236179 0.320609550846882 1713168300.52328
 0.495718099015214 -0.235996015854711  0.268565077433246 0.611193712342723 1713168300.54296
 0.267038983681765 -0.312550866969905  0.647024917724986 0.766576224133292 1713168300.56284
 0.228005996824155 -0.469853028784997   1.06166096707752 1.18316212425102 1713168300.58308
 0.251219331177331 -0.491114105769954  0.867437643819675 1.02798457340509 1713168300.60292
0.323665072912856 -0.53516804024133  0.76717317626893 0.989807351511388 1713168300.6228
  0.42813877322391 -0.625872856734029   0.98095128188523 1.23987300130552 1713168300.6428
 0.497267035600098 -0.659282129504044  0.996745204275092 1.29438341816607 1713168300.66266
 0.276338975697744 -0.649637950502693  0.748705692954993 1.02905437703079 1713168300.6825
0.245799163953579 -0.53113116210564 0.542924285363594 0.798300895651217 1713168300.70252
0.291855066127125 -0.41441351934516   0.4936610152061 0.707544445653012 1713168300.72266
0.0714345809163976 -0.239541806755198  0.754884990438947 0.795194646186866 1713168300.74264
 0.0875277624387361 -0.0358114477356554   0.887283687548513 0.892309313621763 1713168300.7627
0.132759174522811 0.122476982735568 0.781641349785904 0.802239870247743 1713168300.78262
 0.11221250138877 0.168019382250841 0.755723679729406 0.782266219636022 1713168300.80262
 0.257649798602554 0.0518401002254647   1.00711355089817 1.04084029472059 1713168300.82254
  0.349373439399786 -0.0426649591712592     1.2855319241471 1.33284448714036 1713168300.84248
 0.317598191682353 -0.203579871710178   1.20544773794441 1.26309842230949 1713168300.8625
 0.338393199258379 -0.291187241350526   0.89026681990292 0.995929203030872 1713168300.88242
 0.451807107123774 -0.383360943783456  0.891379372114887 1.07035155920755 1713168300.90242
 0.338536945980444 -0.225637167600438  0.887814970213191 0.976593475572699 1713168300.92232
 0.559111422156312 -0.117796617714057  0.889154181591611 1.05691853241978 1713168300.94232
 0.455342488170999 -0.167868728975922  0.707757906545285 0.85815962732997 1713168300.9633
0.0839207845884797 -0.288851648297284  0.440319527453769 0.533253466061979 1713168300.98322
0.0608967392264034 -0.377639533646018  0.505330962193786 0.633781832788293 1713168301.0032
 0.15858843304986 -0.38388473632634 0.817614532197363 0.9170666852208 1713168301.02318
 0.107933871019184 -0.405913170184121  0.877532394796049 0.972871176548364 1713168301.04312
 0.281985280804752 -0.527610236722777  0.739994413824827 0.95156712478792 1713168301.06302
 0.363384538980565 -0.538568766528145  0.681632500172226 0.941662096901434 1713168301.08302
 0.259186837603305 -0.479318959326544   0.74168539914225 0.920337825397545 1713168301.10298
 0.309745605196981 -0.346609012265642  0.756958038765166 0.888293656272414 1713168301.1229
 0.409203961077922 -0.331785567667017  0.704602579106426 0.879769480692194 1713168301.14296
 0.302431204978673 -0.196467694589445  0.371162669550904 0.51751900064664 1713168301.16298
 0.0674795281277641 -0.0441915808125734  -0.173986371023495 0.191774971862819 1713168301.18294
0.0499567444929008 0.0647250473346959 -0.377259330730361 0.386017630032525 1713168301.2029
 0.184539879563606  0.068048943316395 0.0851384682873925 0.214322618074135 1713168301.22282
     0.21834818607858 -0.000176477145917638      0.34832905748283 0.411107156097855 1713168301.2428
 0.424083461364718 -0.137430608881428  0.189565833068624 0.484426629663979 1713168301.2627
  0.222738447382697 -0.0163859194572996  -0.177982218268404 0.285584635998958 1713168301.28294
-0.160398187281902  0.258620425521666 -0.451331881583438 0.544346002386327 1713168301.3028
0.0470777668158122  0.269451166935878 -0.314703624612518 0.416963570154189 1713168301.32266
0.0663379094275341 0.0951369248276946 -0.101302324917764 0.15399322623619 1713168301.34264
-0.0601178280363609  -0.139993769750746  -0.269178779304368 0.309305066309338 1713168301.36268
-0.0442645603215597  -0.236408418095646   -0.54759858287331 0.598090711691633 1713168301.38268
-0.0895623220674788  -0.319500702789956  -0.488547773990104 0.590576867213812 1713168301.40262
-0.123898298124713 -0.362572142635908  -0.37163735927184 0.533782421685409 1713168301.42256
0.0439965952234496 -0.550545320582422 -0.460185920969319 0.718892851727459 1713168301.44248
0.000626389799661407    -0.61058689254057   -0.609023444621114 0.862395675896336 1713168301.46244
-0.121859872844847 -0.470631404489065 -0.597262000054127 0.770107553663622 1713168301.48254
-0.0407963481297666   -0.31374611791896  -0.467959757513468 0.564878131265503 1713168301.50262
-0.0121499404868726  -0.146008991004456  -0.450993703586419 0.474195705571622 1713168301.52246
-0.0871333118838884  -0.201378412225487  -0.427267459552458 0.480315480640302 1713168301.54232
-0.167447948022857 -0.377198245474858 -0.304698451173239 0.512989744374824 1713168301.56322
-0.0518407420948501  -0.373341651109962  -0.266705279927681 0.46173927419677 1713168301.58314
-0.143044268856776 -0.368432893685194 -0.301495958152856 0.497095838631268 1713168301.60312
-0.373340115807398 -0.365967003329623 -0.354303630717729 0.631542359891172 1713168301.62324
-0.156362567501357 -0.430700174560216 -0.371676908444994 0.589996285711229 1713168301.64312
-0.136469406440454 -0.462911447177568 -0.351789121664621 0.597215616794978 1713168301.663
 -0.17825012088956 -0.427102530379302 -0.321209934993916 0.563352020846949 1713168301.68292
-0.236573154235417 -0.448350339538053 -0.443257621485844 0.673396022615273 1713168301.7029
-0.152525654210673 -0.438916295780963 -0.448854747058879 0.646051216121265 1713168301.72294
-0.207593370673979 -0.375204266576158 -0.513844538234241 0.669260381823022 1713168301.74296
 0.112195708302603 -0.403182694563335 -0.453297114829246 0.616946056369106 1713168301.7629
0.0609750163218414 -0.448998557025043 -0.188567396961716 0.490790505229 1713168301.78284
  0.219579103324986  -0.520142710016549 -0.0717200936258291 0.569128450554058 1713168301.8029
 0.067859077832968 -0.471034721754944 -0.102146736653222 0.48673660161529 1713168301.8229
 0.0446895684895543  -0.408606291871736 -0.0208711041350885 0.411572426526329 1713168301.8428
  0.27350366079728 -0.640344407804051  0.165069142747661 0.715606760003622 1713168301.86282
 0.233652481239008 -0.615543816962385  0.168007150250807 0.679495456294717 1713168301.8827
  0.407451520547354  -0.488327218226597 -0.0369393137685296 0.637059437226204 1713168301.90258
 0.220158629038707 -0.382109826110888 -0.208000921136123 0.487588068295536 1713168301.92272
-0.00255502705403878   -0.323753468249945  -0.0468953848238699 0.32714219153893 1713168301.94264
-0.00529280683093022    -0.36121737442572   0.0998194945798106 0.374793192159795 1713168301.96278
-0.0375401525891743   -0.47266648264303   0.140058003994354 0.49440783908979 1713168301.98268
-0.0873549147558266  -0.439363521183497   0.157910723615311 0.474981032791279 1713168302.0026
0.0229781231018767 -0.253526372889813 0.0913887379398833 0.270472766307801 1713168302.02256
0.0670648417127659 -0.211922936914112  0.109342717624263 0.247719305024296 1713168302.04248
0.0140116781943667 -0.265934759218609  0.300223409156797 0.401312495061157 1713168302.06256
-0.0260279626875966  -0.152520026725426    0.46550968126441 0.490549769895864 1713168302.08246
0.0015488975669134 -0.141318542104014   0.40081316662078 0.424999439955694 1713168302.10238
0.123098389238266  0.19364621259066 0.118464789582718 0.258236278347254 1713168302.1224
 0.123437693824025  0.384528141982564 0.0156123061909753 0.404156529500338 1713168302.14232
0.154749239950482 0.345138263841119  0.10886321397614 0.393597443830278 1713168302.16322
-0.0834275812355999   0.241507302308961   0.121158794510884 0.282781526742298 1713168302.18316
-0.021774104692731  0.222758388696243   0.16010591508594 0.275189599031691 1713168302.20308
0.190825216795766 0.222647641114877 0.233229028000168 0.374675879876291 1713168302.22316
 0.18406767731058 0.157650975221072 0.277222783818476 0.368221688235134 1713168302.24312
-0.0002328089537161   0.242378043876299   0.181095265397539 0.302560184926429 1713168302.2631
0.0188037292329986  0.329286346411218 0.0597466865417398 0.335190609532298 1713168302.28302
 0.189719938025385  0.547248371998589 0.0632954081934578 0.582649761209801 1713168302.30308
 0.0663157730319757   0.642816266425624 -0.0645982516485359 0.649448587842221 1713168302.323
 0.0790373528692275   0.623995362424612 -0.0642750221614485 0.632256588696277 1713168302.34296
0.149374688557211 0.584474151397473 0.112105849831873 0.613588259991899 1713168302.36298
0.103848448722673 0.579354670590911 0.186495030549919 0.617427510771445 1713168302.38288
0.328084329963941 0.546924080962048 0.117748141659995 0.648559868299335 1713168302.40286
  0.160404548750599   0.498208319662146 0.00925189407504024 0.523475640870173 1713168302.42276
   0.269903064945931    0.507515927413787 -0.00638162206035718 0.574857205004864 1713168302.4428
0.245255523429944 0.624674449222336 0.340894194987515 0.752713286358299 1713168302.46274
0.108324295259228 0.645667773827226 0.582924760110232 0.876597001507526 1713168302.48278
-0.118591596445407  0.623132058152015  0.230007930218469 0.674730447369629 1713168302.5027
 0.270236579547389  0.569671340878683 -0.103446310036892 0.63894787315104 1713168302.5227
0.192713086343185 0.631262125795528 0.148477940214908 0.676517482288719 1713168302.54264
0.148747564655366 0.629396787649594 0.488880432892826 0.810722043588311 1713168302.56252
 0.211958153884982  0.542026376633504 0.0974505780792371 0.59009784538901 1713168302.5824
-0.143274925915558  0.548277346047187 -0.468169689084225 0.735063677759876 1713168302.60276
 -0.106799419823289   0.402092867144219 -0.0406437818927406 0.418015199352122 1713168302.62262
0.0758420578432804  0.424769626766912  0.710114927912409 0.830929879355443 1713168302.64248
-0.00297986407956393    0.483828230285041    0.539607506876484 0.724758509772836 1713168302.6624
 0.250838062914364  0.439381409626737 -0.228928630990946 0.555323396787492 1713168302.68232
 0.234610921719364  0.411272355860448 -0.692853670942304 0.839186179952481 1713168302.70234
-0.311463494255248  0.508415128596128 -0.161288206250465 0.617664420793847 1713168302.72244
0.00774225735892702   0.414189027518499   0.895869810736802 0.987013277952899 1713168302.74232
0.457979827200861 0.103414667166709 0.952058525243813 1.06153452652166 1713168302.76316
 0.463907459524621 0.0356947886319081  0.168495774086043 0.494848537254501 1713168302.7832
 0.255680449227215  0.103532884882406 -0.267104152436025 0.383974190041038 1713168302.80326
-0.0272338872815344   0.251344405488077   0.207832223336537 0.327276531153131 1713168302.82312
-0.392228914326235  0.414180818906487  0.502651229884636 0.760294371206392 1713168302.84312
0.0985853772378651  0.535209026018529  0.227378213554073 0.589803891251894 1713168302.86308
 0.268778327893862  0.500794769556668 -0.240584659325867 0.617185684428665 1713168302.88314
-0.145207656761964  0.560411640628108 -0.310866199637623 0.65710293304088 1713168302.90308
 -0.36153266712149  0.681415839692659 0.0542978197899501 0.773292744834692 1713168302.92302
-0.103903829122961  0.609758128853667  0.375921440732228 0.723821739803201 1713168302.94296
0.112889688824385 0.668875965768691 0.102411814108705 0.686022826948857 1713168302.96246
 0.26419696246351 0.777648681869479 -0.32425833035936 0.882995454232763 1713168302.98276
  0.255165124667498   0.777622954824908 -0.0937122090581866 0.823764941499555 1713168303.00334
-0.0528153431828123   0.503441461937855   0.379258487329735 0.632518589675656 1713168303.02332
0.121041715030617 0.255523189609432 0.379398101855968 0.473166056366728 1713168303.0428
 0.527490284789769  0.128911143980132 -0.103552479671173 0.552799420799178 1713168303.06322
 0.131178295246414  0.237134216752249 -0.361392994419717 0.451713712780681 1713168303.08386
-0.0673454018602264    0.13053725337809  -0.339570725215226 0.369977911630419 1713168303.10298
0.0370000790534797 -0.164464851125746 0.0203640614422532 0.169801025038724 1713168303.12354
-0.0662327483577658  -0.140322720377882  -0.101495865529146 0.185414814750017 1713168303.14264
0.0273163008220458 0.0504521577119892 -0.516902138442996 0.520076360965713 1713168303.16266
-0.0369593057520013     0.1110000815767  -0.558634909286237 0.570753861366654 1713168303.18316
-0.218652991765156 0.0266843014551903 -0.425683745295048 0.479299315418272 1713168303.20364
 -0.22224415598736 -0.117341220311523 -0.339474788755597 0.422379638542614 1713168303.22354
-0.117276157067628 -0.183269264426232 -0.291882712599424 0.364056092126311 1713168303.24248
-0.0649027357456507  -0.281766832347623  -0.227026336871331 0.367621912502095 1713168303.26186
-0.156933715430806 -0.322769664825631 -0.286009913646371 0.458922780295958 1713168303.28236
-0.0537649373497765  -0.217656188745067  -0.330394102367526 0.399280788251196 1713168303.303
-0.0517547317876424  -0.209105268580705  -0.275292374173713 0.349556085469584 1713168303.32306
-0.0785988211788561  -0.254837416303354  -0.461812090231885 0.53328256124049 1713168303.34232
-0.000792182750625921    -0.338277640086727    -0.645638537163506 0.728890602221478 1713168303.36304
-0.182034456194486 -0.344266221156525 -0.540046663404192 0.665812415718885 1713168303.38358
-0.325950821947273 -0.232389329042489 -0.328092618017817 0.517584297075081 1713168303.40372
-0.0156895557096662  -0.214097499247643  -0.187935863289199 0.285313494340379 1713168303.42346
-0.0490698306723915  -0.246523905981988  -0.496700620626418 0.55668069037241 1713168303.44312
-0.204273885951093 -0.294472299934393 -0.790954047747858 0.868360559651884 1713168303.46314
-0.0908803600701056  -0.433568462837434  -0.544351252896028 0.701825575441051 1713168303.48304
-0.237311840648404 -0.418883381452255 -0.109592961636806 0.493751773879482 1713168303.50304
-0.295341373270233 -0.343669935889143 -0.245511892231519 0.515375242737072 1713168303.52294
0.0999442399720698 -0.320926584659336 -0.590825739994086 0.67974832025115 1713168303.54296
-0.0314205903010075  -0.277644997275689  -0.790078867714128 0.838032586010544 1713168303.56292
 -0.15987509844857 -0.238492268241081 -0.672287563231654 0.731032951918497 1713168303.58288
-0.235254397873894 -0.224491528645758 -0.447338149656459 0.553039327978384 1713168303.60288
-0.184989748665302 -0.202007854640956   -0.4484625835159 0.525496973598944 1713168303.62282
-0.0386793632862163   -0.26879057177793  -0.686897964733169 0.738629324204979 1713168303.6428
0.00392129540937722  -0.340640394105352  -0.846990982694043 0.912932078206784 1713168303.66252
 0.141900169678957  -0.32737410542222 -0.985013091550676 1.0476450990589 1713168303.6824
-0.0996654722754731  -0.338740950442263  -0.960761569985211 1.02359241509053 1713168303.7025
-0.414829068250146 -0.362593292548748 -0.753526841155484 0.933466524310534 1713168303.7226
-0.495447249870095  -0.48060414396927 -0.531814543947577 0.871363890552302 1713168303.74264
-0.289767937367486 -0.604836592258274 -0.446437064951926 0.805666689036912 1713168303.7626
0.0828152035703897  -0.75897413864484 -0.428698189856188 0.875603928189026 1713168303.78268
 0.174173443262124 -0.820969437749401 -0.358038787214065 0.912424780026315 1713168303.8026
0.00260681414423837  -0.601065326320822  -0.267011140874071 0.657709108448418 1713168303.82244
-0.135034785534779 -0.458272282574277   -0.2974526304676 0.562784102167391 1713168303.84248
0.0542734175868495 -0.260329140670778 -0.552948938780043 0.61357101808749 1713168303.86238
0.00899923825404729  -0.222059225206632  -0.743033319218222 0.775557734315744 1713168303.88232
 0.128489343460003 -0.169924452314251 -0.749749458515463 0.779428047622941 1713168303.90234
 0.115815460695676 -0.205105539806899 -0.664168996053105 0.70469990684959 1713168303.9224
0.0544844366343584 -0.178753078203846 -0.592373468801937 0.621150177769558 1713168303.94232
0.0126423866078265 -0.151626211503487 -0.405306982372429 0.432925037291546 1713168303.96328
0.0425393849138286 -0.279894062309697 -0.141560567923598 0.316527533993369 1713168303.98324
 0.0289845755436895  -0.402652935288105 -0.0738106613287763 0.41038701933829 1713168304.00316
 0.191405364541878  -0.46933082594931 -0.187566077745711 0.540452098971389 1713168304.02318
0.0541759976539759 -0.498388418963329 -0.307326043246806 0.588026659035377 1713168304.04312
-0.133556722693473 -0.473352409440931  -0.40986511549753 0.640225987134199 1713168304.0631
-0.213247650505473 -0.436749351725496 -0.372613144041521 0.612425596943214 1713168304.0831
  0.17234337663501 -0.362746630008546 -0.242121594570706 0.468945864263643 1713168304.10304
 0.149608138399316 -0.354992901086365 -0.277111549038644 0.474545430393782 1713168304.12298
0.0860549634443871 -0.316226061564362 -0.351848987525239 0.480834783234801 1713168304.14296
-0.00254216309269548   -0.261918283835179   -0.345223882808836 0.433344181063925 1713168304.163
0.0367132879167202 -0.165325839076472 -0.239691150926971 0.293483127979602 1713168304.18298
0.0889786151319251 -0.136145521709947 -0.225529770280279 0.278058400907335 1713168304.2029
 0.287764618218439 -0.147486809822756 -0.203156926455587 0.38188161953278 1713168304.2228
0.0959064205048443 -0.180182982574924 -0.207013641376095 0.290720822129131 1713168304.2428
-0.0865792534646555  -0.200336061081208  -0.175830088007868 0.280261885294603 1713168304.2627
 -0.107384629264611  -0.145017317976206 -0.0471712142777458 0.186511674089712 1713168304.28276
0.0613610252469697 -0.091632136804551   -0.1050552876757 0.152309675934759 1713168304.3027
0.0400185618166731 0.0378318968407549 -0.245585896683096 0.251684664527032 1713168304.32272
-0.0892010957605343   0.138314412151441  -0.309311254659165 0.350372893290142 1713168304.34264
-0.255260529320221       0.1847433006 -0.341247240445531 0.464475730320877 1713168304.36262
-0.331562534125046  0.177709472523271 -0.244366676525481 0.448586048886978 1713168304.3826
 -0.140253824801272   0.152230367039283 -0.0768509976270193 0.22079695617596 1713168304.40254
0.258975661945657 0.158616470352722 0.119927111676412 0.32651200630665 1713168304.42242
0.263287249018176 0.151477943123937 0.255928498206394 0.397196599863088 1713168304.44248
 0.192286476372551 0.0572813540017135  0.213997512187929 0.29334310582433 1713168304.4624
   0.122968514314786 -0.00967989899421494   0.0529090488964883 0.134217448241482 1713168304.48248
  0.311382949696724  0.0760986737709971 -0.0974624541587512 0.33503623607333 1713168304.50236
 0.329172687129463  0.204678032915376 -0.127827992657858 0.40815162723806 1713168304.52242
  0.265005070454912   0.165485860990289 -0.0995013993259947 0.327892949028095 1713168304.54232
  0.110602950970474   0.135214594763359 -0.0463511046627714 0.18073301940668 1713168304.56328
 0.116510968915989  0.243383319966096 -0.101225547878476 0.288195867178485 1713168304.58332
 0.212110231045212  0.376096049353277 -0.161087033648945 0.46085574843221 1713168304.60328
 0.274598351143793  0.331153675404243 -0.128197392864721 0.448889276684061 1713168304.62314
0.0220712727459331  0.177307390789943 -0.122140060285846 0.216433006346058 1713168304.64312
-0.240102928326668  0.249411590183877 -0.154555855241772 0.379134632945352 1713168304.66306
 0.125605731668737  0.438306129815705 -0.248328059161178 0.519187719643693 1713168304.68328
 0.227379737562556  0.482101306437079 -0.254429075962409 0.590641489752829 1713168304.70328
  0.29764336202781  0.411828177934881 -0.108512751141971 0.519585446544436 1713168304.72314
0.118995242857229 0.336822168193181 0.152791966966546 0.388528539464622 1713168304.74296
-0.00517354417048928     0.38492218178207    0.133271042471407 0.407373320614604 1713168304.76326
  0.0833829505085013    0.488913698652087 -0.00131164859534309 0.495974839671535 1713168304.78326
  0.219354092099391   0.520863944323006 -0.0997727345658014 0.573907714514455 1713168304.8032
  0.267679106511881   0.495018221976832 -0.0760018364378291 0.567865673635963 1713168304.82298
  0.145368089896787   0.454659227758421 -0.0464950818538042 0.479592209676842 1713168304.8428
 0.0407325560763379   0.385944546689602 -0.0284710347968475 0.389130998593478 1713168304.86262
 -0.0667981370322995    0.341777707861031 -0.00561189649441366 0.348289371190093 1713168304.88302
 0.167441534042829  0.230669324379152 0.0743760114385683 0.294579014204441 1713168304.90288
0.102522459509507  0.19849715673045 0.198466372435729 0.298832523199448 1713168304.92282
 -0.184247911964797    0.23681384560318 -0.0339817223732453 0.301964978082238 1713168304.94264
 -0.11359096767985  0.290184050672162 -0.221384076854271 0.382257244126997 1713168304.96252
